# .PCD v0.7 - Point Cloud Data file format
VERSION 0.7
FIELDS x y z label
SIZE 4 4 4 4
TYPE F F F U
COUNT 1 1 1 1
WIDTH 1298
HEIGHT 1
VIEWPOINT 0 0 0 1 0 0 0
POINTS 1298
DATA ascii
-0.028068982 0.083413556 0.73699999 8
-0.025712008 0.082944833 0.73699999 8
-0.023355031 0.082944833 0.73699999 8
0.022349605 0.082400665 0.73633337 31
0.024895195 0.082486026 0.73500001 31
0.027010716 0.081784852 0.73500001 31
-0.042210825 0.086225875 0.73699999 8
-0.040089548 0.086225875 0.73699999 8
-0.037261181 0.085522793 0.73699999 8
-0.034386095 0.085405804 0.73600006 8
-0.031582523 0.085464299 0.73650002 8
-0.028776076 0.085522793 0.73699999 8
-0.025947705 0.085522801 0.73699999 8
-0.023119336 0.085522801 0.73699999 8
0.022779677 0.084589541 0.73500001 31
-0.049753148 0.08856947 0.73699999 8
-0.046453383 0.088335119 0.73699999 8
-0.042917915 0.088335112 0.73699999 8
-0.040089548 0.088335112 0.73699999 8
-0.037185825 0.08815486 0.73549998 8
-0.034339372 0.088095412 0.73500001 8
-0.031560604 0.088215262 0.73600006 8
-0.028776076 0.088335112 0.73699999 8
-0.025947705 0.088335112 0.73699999 8
-0.023826428 0.087632038 0.73699999 8
0.056628004 0.088796578 0.73500001 31
0.058038346 0.088796578 0.73500001 31
0.065090083 0.088796578 0.73500001 31
-0.042210825 0.090444356 0.73699999 8
-0.040089548 0.091147438 0.73699999 8
-0.037211582 0.091023766 0.736 8
-0.034339372 0.090900093 0.73500001 8
-0.031518679 0.090900093 0.73500001 8
-0.028756073 0.091085121 0.73650002 8
-0.025947705 0.09114743 0.73699999 8
0.049576268 0.091601275 0.73499995 31
0.053102136 0.090900093 0.73500001 31
0.055789217 0.090831257 0.73633337 31
0.059085146 0.090831257 0.73633337 31
0.061647978 0.091024719 0.736 31
0.064266652 0.090831257 0.73633337 31
-0.039382458 0.093959764 0.73699999 8
-0.037194412 0.094490953 0.73566669 8
-0.03457443 0.093471058 0.73499995 8
-0.030813506 0.093003608 0.73500001 8
-0.028697984 0.093704782 0.73500001 8
-0.025894415 0.093768045 0.73549998 8
-0.023826428 0.094662845 0.73699999 8
0.032652106 0.095808305 0.73500001 31
0.034767628 0.094405957 0.73500001 31
0.037639461 0.093833223 0.73600006 31
0.040463991 0.093833223 0.73600006 31
0.043033224 0.09355668 0.73566669 31
0.046175703 0.093256675 0.73699999 31
0.049004078 0.093256675 0.73699999 31
0.052539539 0.093256675 0.73699999 31
0.062438827 0.093256675 0.73699999 31
-0.039382458 0.096069001 0.73699999 8
-0.037160069 0.097210646 0.73500001 8
-0.0237941 0.096639827 0.736 8
0.031991355 0.097342908 0.736 31
0.034155138 0.096069001 0.73699999 31
-0.26352075 0.1490974 0.73500001 13
-0.26508003 0.15158838 0.73620003 13
-0.26845694 0.16452318 0.73500001 13
-0.26793295 0.16673958 0.73549998 13
-0.26882124 0.16966191 0.736 13
-0.26882124 0.17247042 0.73600006 13
-0.26917902 0.17512459 0.73633337 13
-0.27057248 0.17854662 0.73499995 13
-0.27057248 0.18205249 0.73500001 13
-0.27164578 0.18510772 0.736 13
-0.29263225 0.18778905 0.73549998 13
-0.28961217 0.18836305 0.73500001 13
-0.028183239 -0.0066075004 0.74000001 8
-0.026763299 -0.0066075004 0.74000001 8
-0.037412856 -0.003783732 0.74000001 8
-0.034479532 -0.0037735053 0.73799998 8
-0.031647325 -0.0044775396 0.73799998 8
-0.02881512 -0.0044775396 0.73799998 8
-0.026690964 -0.0051815738 0.73799998 8
-0.045100305 -0.0009573687 0.73799998 8
-0.042976156 -0.0009573687 0.73799998 8
-0.040198341 -0.0016646081 0.73899996 8
-0.03731174 -0.0016614029 0.73799998 8
-0.034479532 -0.001661403 0.73799998 8
-0.03188334 -0.001896081 0.73799998 8
-0.029523171 -0.0023654371 0.73799998 8
-0.046233188 0.0010139269 0.73799998 8
-0.042976156 0.0011547338 0.73799998 8
-0.040143944 0.0011547338 0.73799998 8
-0.037547756 0.00092005573 0.73799998 8
-0.034479532 0.00045069962 0.73799998 8
-0.093500532 0.0046875742 0.74000001 8
-0.09137062 0.0046875742 0.74000001 8
-0.13107021 0.0075073238 0.73966664 8
-0.12757912 0.0075113424 0.74000001 8
-0.12417126 0.0077937199 0.74000001 8
-0.12118939 0.0082172845 0.74000001 8
-0.1183495 0.0082172845 0.74000001 8
-0.11550961 0.0082172845 0.74000001 8
-0.11266974 0.0082172845 0.74000001 8
-0.10982985 0.0082172854 0.74000001 8
-0.10698996 0.0082172845 0.74000001 8
-0.10344011 0.0082172854 0.74000001 8
-0.099977873 0.0072241426 0.7396 8
-0.097241417 0.007702705 0.73914284 8
-0.094125628 0.0075033042 0.73933333 8
-0.091288306 0.0075033042 0.73933333 8
-0.088624492 0.0077888966 0.7396 8
-0.086400822 0.008923227 0.74000001 8
-0.13148262 0.010307179 0.73799998 8
-0.12511015 0.010307179 0.73799998 8
-0.12156989 0.011011213 0.73799998 8
-0.11802963 0.010307179 0.73799998 8
-0.11590547 0.010307179 0.73799998 8
-0.11165716 0.010307179 0.73799998 8
-0.11024106 0.010307179 0.73799998 8
-0.086400822 0.010335111 0.74000001 8
-0.083335094 0.025795931 0.73799998 8
-0.09112367 0.028612068 0.73799998 8
-0.0884111 0.027946804 0.73900002 8
-0.085575044 0.027946804 0.73899996 8
-0.083560944 0.027983665 0.74000001 8
-0.11165716 0.03283627 0.73799998 8
-0.10953301 0.03283627 0.73799998 8
-0.10665756 0.032426242 0.73933333 8
-0.10361151 0.032326438 0.7392 8
-0.10046332 0.032176733 0.73899996 8
-0.09727326 0.031118773 0.73899996 8
-0.094210505 0.030101493 0.74000001 8
-0.09137062 0.030101493 0.74000001 8
-0.12156989 0.035652407 0.73799998 8
-0.11818957 0.034996685 0.73900002 8
-0.11564156 0.034776837 0.73933333 8
-0.1133797 0.034337144 0.74000001 8
-0.12118939 0.037160914 0.74000001 8
-0.01540377 0.041396566 0.74000001 8
-0.021083534 0.044220336 0.74000001 8
-0.019172562 0.043240514 0.73933333 8
-0.016823711 0.042808451 0.74000001 8
-0.030939274 0.046916958 0.73799998 8
-0.028855123 0.046276495 0.73899996 8
-0.026763299 0.045632221 0.74000001 8
-0.036603685 0.049733095 0.73799998 8
-0.034525294 0.049800485 0.73899996 8
-0.032443061 0.048455987 0.74000001 8
-0.050338548 0.052127343 0.73866659 8
-0.047932513 0.052549228 0.73799998 8
-0.042976156 0.052549228 0.73799998 8
-0.040198341 0.051916398 0.73899996 8
-0.037649512 0.051750381 0.74000001 8
-0.048772383 0.054103527 0.74000001 8
-0.045932502 0.054103527 0.74000001 8
-0.043092623 0.054103527 0.74000001 8
0.037844021 0.068222366 0.74000001 31
0.040683903 0.068222366 0.74000001 31
0.043523788 0.068222366 0.74000001 31
0.045653697 0.068222366 0.74000001 31
0.052280087 0.067751735 0.74000001 31
0.054883316 0.067516424 0.74000001 31
0.058433164 0.067516424 0.74000001 31
0.06189926 0.06742423 0.73899996 31
0.064112931 0.068222366 0.74000001 31
0.027904434 0.071046136 0.74000001 31
0.031454284 0.071046136 0.74000001 31
0.035004139 0.070340194 0.74000001 31
0.037844021 0.070340194 0.74000001 31
0.040628925 0.070244178 0.73899996 31
0.04346497 0.070244178 0.73899996 31
0.04636367 0.070340194 0.74000001 31
0.049203552 0.070340194 0.74000001 31
0.052007791 0.07029219 0.73949999 31
0.055492472 0.070212819 0.73866671 31
0.058983289 0.070150085 0.73799998 31
0.061815493 0.070150085 0.73799998 31
0.064411677 0.070384756 0.73799998 31
0.022461325 0.073399276 0.74000001 31
0.02506455 0.073163964 0.74000001 31
0.028314183 0.073265225 0.7396 31
0.031703502 0.07294292 0.7392 31
0.034932703 0.073015183 0.7385 31
0.037741739 0.07226219 0.73799998 31
0.040573947 0.07226219 0.73799998 31
0.043642167 0.072731547 0.73799998 31
0.046238359 0.072966218 0.73799998 31
0.049070567 0.072966225 0.73799998 31
0.051902771 0.07226219 0.73799998 31
0.054734983 0.07226219 0.73799998 31
0.065355755 0.07226219 0.73799998 31
-0.028183239 0.076693676 0.74000001 8
-0.026053328 0.076693676 0.74000001 8
-0.023923416 0.076693676 0.74000001 8
0.022174297 0.076520301 0.73833328 31
0.02499681 0.075782351 0.73799998 31
0.028253848 0.07564155 0.73799998 31
0.032077327 0.075078323 0.73799998 31
-0.048062414 0.080929331 0.74000001 8
-0.045932502 0.080223389 0.74000001 8
-0.043092623 0.080223382 0.74000001 8
-0.040252738 0.080929331 0.74000001 8
-0.037412856 0.080929331 0.74000001 8
-0.034550093 0.080168702 0.73949999 8
-0.031556793 0.079712331 0.7392 8
-0.02886718 0.079444528 0.73933333 8
-0.026006386 0.079372898 0.73866671 8
-0.02246926 0.079396769 0.73888886 8
-0.018936547 0.079444535 0.73933333 8
-0.016099222 0.079444528 0.73933333 8
-0.013273858 0.079517446 0.74000001 8
-0.010433976 0.079517446 0.74000001 8
-0.0078245485 0.080385782 0.73933333 8
0.021456551 0.079302527 0.73799998 31
-0.048062414 0.083047152 0.74000001 8
-0.045932502 0.083047152 0.74000001 8
-0.043092623 0.083047152 0.74000001 8
-0.040198341 0.082933977 0.73899996 8
-0.037337497 0.082878336 0.73849994 8
-0.035187583 0.082118668 0.73799998 8
-0.030939274 0.082118668 0.73799998 8
-0.029051138 0.082588024 0.73799998 8
-0.026690964 0.082118668 0.73799998 8
-0.021498585 0.082588024 0.73799998 8
-0.018902395 0.082822703 0.73799998 8
-0.016070189 0.082822703 0.73799998 8
-0.013237982 0.082822703 0.73799998 8
-0.010426446 0.082990564 0.73949999 8
-0.0075894417 0.082991518 0.73949999 8
-0.0049908683 0.083282471 0.74000001 8
-0.050091065 0.085696384 0.73849994 8
-0.046516415 0.085638843 0.73799998 8
-0.043212175 0.085404158 0.73799998 8
-0.040143944 0.084934801 0.73799998 8
-0.02102655 0.085638836 0.73799998 8
-0.018902395 0.085638836 0.73799998 8
-0.016070189 0.085638836 0.73799998 8
-0.013264409 0.085813381 0.73949999 8
-0.010433976 0.085870922 0.74000001 8
-0.0075940937 0.085870922 0.74000001 8
-0.0047542113 0.085870929 0.74000001 8
-0.050764721 0.087750942 0.73799998 8
-0.022170831 0.08864411 0.73839998 8
-0.018953621 0.087988749 0.74000001 8
-0.016113739 0.087988749 0.74000001 8
-0.013273858 0.087988749 0.74000001 8
-0.0054641818 0.087988749 0.74000001 8
-0.05005667 0.091271102 0.73799998 8
-0.046516407 0.09127111 0.73799998 8
-0.043212172 0.091505788 0.73799998 8
-0.023181114 0.091394782 0.73899996 8
0.056859132 0.091975138 0.73799998 31
0.058275238 0.091975138 0.73799998 31
-0.04982065 0.093852572 0.73799998 8
-0.046516415 0.094087251 0.73799998 8
-0.042976156 0.094087243 0.73799998 8
-0.040851999 0.094087243 0.73799998 8
-0.022955233 0.09402255 0.73933333 8
0.044114202 0.094791278 0.73799998 31
0.046238359 0.094791278 0.73799998 31
0.049070567 0.094791278 0.73799998 31
0.051974062 0.094919726 0.73899996 31
0.055119973 0.094577551 0.74000001 31
0.058379244 0.093551934 0.73933333 31
0.061107446 0.093383215 0.73799998 31
-0.049348619 0.096903384 0.73799998 8
-0.046557788 0.096991561 0.73866659 8
-0.043063983 0.097100824 0.73949999 8
-0.040416867 0.09722624 0.73866659 8
0.03520862 0.097314417 0.73933333 31
0.03779288 0.097035646 0.73900002 31
0.040628925 0.097035646 0.73899996 31
0.043287128 0.096930683 0.74000001 31
0.046363667 0.096460052 0.74000001 31
0.049203549 0.096460052 0.74000001 31
-0.048062414 0.099283822 0.74000001 8
-0.045932502 0.099283822 0.74000001 8
-0.043092623 0.099283822 0.74000001 8
-0.038019791 0.099015489 0.73799998 8
0.029953171 0.099015489 0.73799998 31
0.032164257 0.099283822 0.74000001 31
0.034294169 0.099283822 0.74000001 31
-0.26459634 0.14829788 0.73799998 13
-0.26318023 0.14970595 0.73799998 13
-0.26353684 0.15202472 0.73899996 13
-0.26602337 0.15434732 0.74000001 13
-0.26742855 0.16519471 0.73799998 13
-0.26673332 0.16705427 0.74000001 13
-0.26742855 0.16871487 0.73799998 13
-0.26673332 0.16917211 0.74000001 13
-0.26815328 0.17199586 0.74000001 13
-0.26673332 0.17128992 0.74000001 13
-0.26838374 0.17536618 0.73933333 13
-0.27026075 0.17857134 0.73799998 13
-0.27026075 0.18138748 0.73799998 13
-0.10314661 -0.00096385501 0.74299997 8
-0.10029522 -0.00096385501 0.74299997 8
-0.098156676 -0.00096385501 0.74299997 8
-0.09387958 -0.00096385501 0.74299997 8
-0.09174104 -0.00096385501 0.74299997 8
-0.12096784 0.0018713613 0.74299997 8
-0.11882929 0.0018713613 0.74299997 8
-0.11597789 0.0018713613 0.74299997 8
-0.11288887 0.0013988252 0.74299997 8
-0.10956226 0.0011625573 0.74299997 8
-0.10599801 0.0011625572 0.74299997 8
-0.10314661 0.0011625572 0.74299997 8
-0.10022773 0.0011612979 0.74249995 8
-0.097378254 0.0011612979 0.74249995 8
-0.094528779 0.0011612979 0.74249995 8
-0.091679297 0.0011612979 0.74249995 8
-0.089602493 0.0011625572 0.74299997 8
-0.13295217 0.0039934996 0.74224997 8
-0.13014723 0.0039946064 0.74249995 8
-0.12721203 0.0039923927 0.74199998 8
-0.12440613 0.0039934996 0.74224997 8
-0.1215988 0.0039946064 0.74249995 8
-0.11866936 0.0039923931 0.74199998 8
-0.11582181 0.0039923927 0.74199998 8
-0.11297424 0.0039923931 0.74199998 8
-0.11012669 0.0039923927 0.74199998 8
-0.10656724 0.0039923931 0.74200004 8
-0.10300779 0.0039923927 0.74199998 8
-0.10016023 0.0039923931 0.74199998 8
-0.097312681 0.0039923931 0.74199998 8
-0.094702423 0.003756443 0.74199992 8
-0.091617562 0.0032845428 0.74199998 8
-0.08879967 0.0039934996 0.74224997 8
-0.13361904 0.0061159432 0.74199998 8
-0.12365258 0.0061159432 0.74199998 8
-0.12151691 0.0061159432 0.74199998 8
-0.11866936 0.0061159432 0.74199998 8
-0.11582181 0.0061159432 0.74199998 8
-0.11297424 0.0061159432 0.74199998 8
-0.11012669 0.0061159432 0.74199998 8
-0.10656724 0.0061159432 0.74199992 8
-0.10300779 0.0061159432 0.74199998 8
-0.088058114 0.0061159432 0.74199998 8
-0.086634338 0.0075316434 0.74199998 8
-0.094465122 0.031598549 0.74199998 8
-0.091678821 0.031619839 0.74249995 8
-0.089047499 0.030668942 0.74233323 8
-0.08572343 0.030668942 0.74233323 8
-0.083786778 0.030182846 0.74199998 8
-0.11510991 0.035845648 0.74199998 8
-0.11305085 0.035161953 0.74249995 8
-0.10951247 0.034460884 0.74266666 8
-0.10599801 0.034476351 0.74299997 8
-0.097312681 0.033014245 0.74199998 8
-0.09459243 0.03305874 0.74299997 8
-0.11874884 0.037286453 0.74249995 8
-0.11669074 0.037311561 0.74299997 8
-0.018292958 0.044339851 0.74199998 8
-0.01615729 0.043632001 0.74199998 8
-0.02825941 0.04717125 0.74199998 8
-0.025428496 0.046849109 0.74250001 8
-0.022564294 0.045755547 0.74199992 8
-0.031595536 0.049553212 0.74233323 8
-0.028990339 0.048619688 0.74249995 8
-0.036802083 0.052834049 0.74199998 8
-0.034919601 0.051913988 0.74233335 8
-0.032574587 0.051487643 0.74299997 8
-0.048257258 0.055740468 0.74299997 8
-0.046118714 0.055740468 0.74299997 8
-0.043209083 0.055665448 0.74199998 8
-0.040617276 0.054746658 0.74233323 8
-0.038277376 0.054322861 0.74299997 8
0.05795721 0.062828511 0.74299997 31
0.060808599 0.062828511 0.74299997 31
0.035858896 0.065663725 0.74299997 31
0.03799744 0.065663725 0.74299997 31
0.040848836 0.065663725 0.74299997 31
0.043670826 0.06491074 0.74249995 31
0.0465203 0.06491074 0.74249995 31
0.049369775 0.06491074 0.74249995 31
0.052219253 0.06491074 0.74249995 31
0.055068728 0.06491074 0.74250001 31
0.057898462 0.064889118 0.74224997 31
0.061452772 0.064881921 0.7421667 31
0.020176223 0.068498947 0.74299997 31
0.02231477 0.067790136 0.74299997 31
0.025157455 0.067767091 0.74274999 31
0.027998704 0.067744046 0.74250001 31
0.03154606 0.067713954 0.7421667 31
0.035098743 0.067698896 0.74199998 31
0.037946299 0.066991046 0.74199998 31
0.040793858 0.066991046 0.74199998 31
0.043641418 0.066991046 0.74199998 31
0.046726268 0.067462943 0.74199992 31
0.04933653 0.067698896 0.74199998 31
0.051472198 0.066991046 0.74199998 31
0.020176223 0.070625357 0.74299997 31
0.022284735 0.070530303 0.74199998 31
0.025132291 0.070530303 0.74199998 31
0.027979851 0.069822453 0.74199998 31
0.031539295 0.069822453 0.74199992 31
-0.031861737 0.074169375 0.74299997 8
-0.029010342 0.073460571 0.74299997 8
-0.025434365 0.073427297 0.74266666 8
-0.021881854 0.073460571 0.74299997 8
-0.019030461 0.073460571 0.74299997 8
-0.016416682 0.073696844 0.74299997 8
-0.013327671 0.074169375 0.74299997 8
-0.01071389 0.073696844 0.74299997 8
0.021572845 0.072653852 0.74199998 31
-0.048937634 0.07695277 0.74249995 8
-0.046056643 0.076900952 0.74199998 8
-0.043209083 0.076900952 0.74199998 8
-0.040142044 0.076462962 0.74233335 8
-0.037539247 0.076243967 0.74250001 8
-0.034689773 0.076243967 0.74249995 8
-0.031840298 0.076243967 0.74249995 8
-0.029208595 0.075957149 0.74199992 8
-0.026123742 0.075485252 0.74199998 8
-0.02227954 0.076051533 0.74199998 8
-0.019004848 0.076193102 0.74199998 8
-0.01615729 0.076193102 0.74199998 8
-0.013309732 0.076193102 0.74199998 8
-0.010703851 0.075991064 0.74233323 8
-0.04868919 0.078823738 0.74233323 8
-0.046056643 0.078316651 0.74199998 8
-0.043209083 0.078316651 0.74199998 8
-0.040361531 0.079024501 0.74199998 8
-0.037513971 0.079024501 0.74199998 8
-0.034666412 0.078316651 0.74199998 8
-0.032530747 0.078316651 0.74199998 8
-0.051108655 0.082675025 0.74299997 8
-0.049682956 0.082675025 0.74299997 8
-0.051108655 0.084092632 0.74299997 8
-0.049682956 0.084092632 0.74299997 8
-0.019004848 0.089642256 0.74199998 8
-0.01615729 0.089642256 0.74199998 8
-0.013318222 0.089702666 0.74249995 8
-0.010469224 0.088994816 0.74250001 8
-0.0076174233 0.088964611 0.74224997 8
-0.0045297639 0.089170359 0.74199992 8
-0.021140516 0.091765806 0.74199998 8
-0.019716738 0.091057956 0.74199998 8
-0.0069120312 0.091180675 0.74299997 8
-0.0054863337 0.091180675 0.74299997 8
-0.021140516 0.094597206 0.74199998 8
0.057879202 0.095305055 0.74199998 31
0.060808599 0.095433503 0.74299997 31
-0.022564296 0.096720755 0.74199998 8
0.044353306 0.098136455 0.74199998 31
0.046488971 0.098136455 0.74199998 31
0.04933653 0.098136455 0.74199998 31
0.052201912 0.097461671 0.74224997 31
0.05508751 0.097527325 0.74274993 31
0.05795721 0.09685111 0.74299997 31
0.035810631 0.099552155 0.74199998 31
0.037946299 0.099552155 0.74199998 31
0.040793858 0.099552155 0.74199998 31
0.042929526 0.099552155 0.74199998 31
-0.2649633 0.15497303 0.74299997 13
-0.26745424 0.15618016 0.74199998 13
-0.26558653 0.15704682 0.74274999 13
-0.26638898 0.15922587 0.74299997 13
-0.26781467 0.16489629 0.74299997 13
-0.26745424 0.16609006 0.74199998 13
-0.26603046 0.16679791 0.74199998 13
-0.26603046 0.16962931 0.74199998 13
-0.26745424 0.17316855 0.74199998 13
-0.26603046 0.17246071 0.74199998 13
-0.26745424 0.17529212 0.74199998 13
-0.26603046 0.17529212 0.74199998 13
-0.10356309 -0.0066610747 0.74599999 8
-0.10070018 -0.0066610747 0.74599999 8
-0.11215182 -0.0038144109 0.74599999 8
-0.1092889 -0.0045260768 0.74599999 8
-0.106426 -0.0045260768 0.74599999 8
-0.10356309 -0.0045260768 0.74599999 8
-0.10070018 -0.0045260768 0.74599999 8
-0.097837269 -0.0045260768 0.74599999 8
-0.094974369 -0.0045260768 0.74599999 8
-0.092111453 -0.0045260768 0.74599999 8
-0.089964278 -0.0038144109 0.74599999 8
-0.13076071 -0.00096774672 0.74599999 8
-0.12789781 -0.00096774672 0.74599999 8
-0.1250349 -0.00096774672 0.74599999 8
-0.12145627 -0.00096774678 0.74599999 8
-0.1175867 -0.0014417585 0.74566668 8
-0.11493764 -0.0016787642 0.74549997 8
-0.11207666 -0.0016787642 0.74549997 8
-0.10921565 -0.0016787642 0.74549997 8
-0.10631924 -0.001677963 0.74524999 8
-0.10342427 -0.0023878736 0.745 8
-0.1005652 -0.0023878736 0.745 8
-0.09746787 -0.0019140657 0.74500006 8
-0.095085315 -0.0019140657 0.74500006 8
-0.091987982 -0.0023878736 0.745 8
-0.08990398 -0.0016787641 0.74549997 8
-0.13332567 0.0014036336 0.74566668 8
-0.13067308 0.0011659919 0.74549997 8
-0.1278121 0.0011659919 0.74549997 8
-0.12486731 0.0011656865 0.745 8
-0.12224648 0.00092878257 0.74500006 8
-0.11843439 0.00045497456 0.74500006 8
-0.11486055 0.00045497456 0.745 8
-0.088414147 0.031726304 0.745 8
-0.085555077 0.031726304 0.745 8
-0.11200148 0.035990577 0.745 8
-0.1034932 0.034592353 0.74549997 8
-0.10070018 0.034615554 0.74599999 8
-0.097837277 0.034615554 0.74599999 8
-0.095690094 0.034615554 0.74599999 8
-0.091987982 0.03314773 0.745 8
-0.088492624 0.033177391 0.74566668 8
-0.08566992 0.033192221 0.74599999 8
-0.12074054 0.038885552 0.74599999 8
-0.11859336 0.038885552 0.74599999 8
-0.11493716 0.037437111 0.74549997 8
-0.11215182 0.03746222 0.74599999 8
-0.1092889 0.036038887 0.74599999 8
-0.106426 0.036038887 0.74599999 8
-0.015528664 0.044578876 0.74599999 8
-0.021940758 0.047361966 0.745 8
-0.019337019 0.046456099 0.74566668 8
-0.016960118 0.046002209 0.74599999 8
-0.029088434 0.050204817 0.745 8
-0.025542816 0.049549624 0.74583334 8
-0.021970209 0.048848871 0.74599999 8
-0.034091804 0.053047668 0.745 8
-0.031737838 0.052621324 0.74566668 8
-0.029127479 0.051695537 0.74599999 8
-0.049883563 0.055965535 0.74599999 8
-0.03980995 0.055890515 0.745 8
-0.037461095 0.055466723 0.74566668 8
-0.034853294 0.054542203 0.74599999 8
0.053181134 0.055965535 0.74599999 31
0.055566892 0.05549109 0.74599999 31
0.057952642 0.05549109 0.74599999 31
0.060338404 0.055965535 0.74599999 31
-0.049167834 0.058100529 0.74599999 8
-0.046273895 0.058062069 0.74550003 8
-0.043680597 0.057863306 0.74599999 8
-0.041294839 0.057388864 0.74599999 8
0.031232169 0.058337752 0.74599999 31
0.033856504 0.058100533 0.74599999 31
0.03743514 0.058100533 0.74599999 31
0.04101377 0.058100529 0.74599999 31
0.043876678 0.058100529 0.74599999 31
0.046739589 0.058812197 0.74599999 31
0.049602497 0.058100529 0.74599999 31
0.052465409 0.058100529 0.74599999 31
0.055328317 0.058100529 0.74599999 31
0.058152217 0.058061115 0.74550003 31
0.061054133 0.058100529 0.74599999 31
0.020257687 0.061658867 0.74599999 31
0.022404868 0.060947198 0.74599999 31
0.025267776 0.060947198 0.74599999 31
0.028130684 0.060947198 0.74599999 31
0.030993592 0.060947198 0.74599999 31
0.033856504 0.060947195 0.74599999 31
0.03763219 0.061240118 0.74585712 31
0.040995445 0.061630681 0.74566656 31
0.043847114 0.061616901 0.74550003 31
0.046697821 0.061603129 0.74533337 31
0.049558174 0.061603129 0.74533337 31
0.052418519 0.061603129 0.74533325 31
0.055254146 0.061576217 0.74499995 31
0.058113217 0.060865499 0.745 31
0.060972288 0.060865499 0.745 31
0.063116588 0.062286928 0.745 31
-0.012665756 0.065928861 0.74599999 8
0.020257687 0.064505525 0.74599999 31
0.022399703 0.064490803 0.74583334 31
0.025245195 0.064447246 0.74533337 31
0.028105548 0.064447246 0.74533325 31
0.030965896 0.064447246 0.74533325 31
0.034130417 0.064443216 0.74528563 31
0.03740957 0.063750625 0.74550003 31
0.040958792 0.064419061 0.745 31
-0.052746471 0.068775527 0.74599999 8
-0.025548844 0.068775527 0.74599999 8
-0.021731632 0.068301082 0.74599999 8
-0.019107301 0.068063863 0.74599999 8
-0.016244391 0.068063855 0.74599999 8
-0.013381483 0.068063855 0.74599999 8
-0.010757151 0.068301082 0.74599999 8
0.020230534 0.067261912 0.745 31
-0.05489365 0.070910521 0.74599999 8
-0.052030742 0.070910521 0.74599999 8
-0.049167834 0.070910521 0.74599999 8
-0.046304926 0.071622185 0.74599999 8
-0.043203443 0.07114774 0.74599999 8
-0.04057911 0.070910521 0.74599999 8
-0.037716202 0.070910521 0.74599999 8
-0.034853294 0.070910521 0.74599999 8
-0.031979907 0.070886523 0.74575001 8
-0.029107956 0.070862517 0.74549997 8
-0.025531719 0.070862524 0.74550003 8
-0.021955483 0.070862517 0.74549997 8
-0.019094493 0.070862524 0.74550003 8
-0.016233504 0.070862524 0.74550003 8
-0.013372514 0.070862517 0.74549997 8
-0.010507762 0.070838995 0.74524999 8
-0.054655075 0.073519967 0.74599999 8
-0.052030742 0.073757187 0.74599999 8
-0.049167834 0.073757187 0.74599999 8
-0.046304926 0.073757187 0.74599999 8
-0.043442018 0.073757187 0.74599999 8
-0.040565751 0.073732227 0.74575001 8
-0.037690926 0.073707275 0.74550003 8
-0.034806572 0.073658317 0.745 8
-0.031947505 0.072947606 0.745 8
-0.015507848 0.072947606 0.745 8
-0.013363546 0.072947606 0.745 8
-0.0097897081 0.072947606 0.745 8
-0.0541053 0.07579045 0.745 8
-0.051960997 0.076501161 0.745 8
-0.049101926 0.07579045 0.745 8
-0.046242859 0.07579045 0.745 8
-0.043383785 0.07579045 0.745 8
-0.041239481 0.07579045 0.745 8
-0.018851651 0.092415273 0.74533337 8
-0.016233504 0.092199139 0.74550003 8
-0.013372035 0.091487467 0.74549997 8
-0.010518575 0.09154883 0.74599999 8
-0.007890502 0.092456818 0.74566668 8
-0.0047900258 0.092199139 0.74549997 8
-0.019823026 0.094395496 0.74599999 8
-0.02125448 0.097242162 0.74599999 8
0.058113217 0.098533235 0.745 31
0.060257521 0.097111814 0.745 31
0.038150866 0.10151216 0.74599999 31
0.044532631 0.099954657 0.745 31
0.046676937 0.099954657 0.745 31
0.049536005 0.099954657 0.745 31
0.052395076 0.099954657 0.745 31
0.055254146 0.099954657 0.745 31
0.057398453 0.099954657 0.745 31
-0.26460168 0.15275212 0.74599999 13
-0.26460168 0.15488711 0.74599999 13
-0.26460168 0.15773377 0.74599999 13
-0.26710606 0.16107589 0.745 13
-0.2651391 0.16047281 0.74550003 13
-0.26746458 0.1634271 0.74599999 13
-0.26531738 0.1634271 0.74599999 13
-0.26710606 0.16534017 0.745 13
-0.2654371 0.16596192 0.74566668 13
-0.26543713 0.16928239 0.74566668 13
-0.11245249 -0.010246804 0.74800003 8
-0.10958191 -0.010246804 0.74800003 8
-0.10671133 -0.010246804 0.74800003 8
-0.10384075 -0.010246804 0.74800003 8
-0.10097016 -0.010246804 0.74800003 8
-0.098817222 -0.0095332293 0.74800003 8
-0.1203466 -0.0066789333 0.74800003 8
-0.11819366 -0.007392507 0.74800003 8
-0.11508387 -0.0071546491 0.74799997 8
-0.11245249 -0.007392507 0.74800003 8
-0.10958191 -0.007392507 0.74800003 8
-0.10671133 -0.007392507 0.74800003 8
-0.10384075 -0.0081060808 0.74800003 8
-0.10097016 -0.0081060808 0.74800003 8
-0.098099574 -0.007392507 0.74800003 8
-0.094511352 -0.007392507 0.74800009 8
-0.09164077 -0.0066789333 0.74800003 8
-0.13326423 -0.0038246375 0.74800003 8
-0.13111129 -0.0038246375 0.74800003 8
-0.12752305 -0.0045382115 0.74800009 8
-0.12369562 -0.0043003536 0.74799997 8
-0.12106425 -0.0045382115 0.74800003 8
-0.11819367 -0.0045382115 0.74800003 8
-0.11532308 -0.0045382115 0.74800003 8
-0.11245249 -0.0052517853 0.74800003 8
-0.090205476 -0.0052517853 0.74800003 8
-0.13326423 -0.0016839153 0.74800003 8
-0.13111129 -0.0023974893 0.74800003 8
-0.12752305 -0.0023974893 0.74799997 8
-0.12393484 -0.0023974893 0.74800003 8
-0.12106425 -0.0023974893 0.74800003 8
-0.11891131 -0.0023974893 0.74800003 8
-0.093793705 0.034708358 0.74800003 8
-0.090923123 0.034708358 0.74800003 8
-0.088770181 0.034708358 0.74800003 8
-0.11747602 0.038989801 0.74800003 8
-0.11532308 0.038989801 0.74800003 8
-0.11245249 0.038989801 0.74800003 8
-0.10982112 0.038038369 0.74799997 8
-0.10671133 0.037562653 0.74800003 8
-0.10407996 0.036611225 0.74799997 8
-0.10097016 0.036135506 0.74800003 8
-0.098817222 0.036135506 0.74800003 8
-0.1203466 0.040416952 0.74800003 8
-0.11819367 0.040416952 0.74800003 8
-0.018440882 0.04755269 0.74800003 8
-0.016048728 0.047076974 0.74799997 8
-0.022029109 0.050406989 0.74800003 8
-0.019397743 0.049455553 0.74799997 8
-0.028129103 0.052904498 0.74800003 8
-0.025138909 0.052309852 0.74799997 8
-0.022029109 0.051834133 0.74800003 8
0.052845281 0.052785564 0.74799997 31
0.055237431 0.052785564 0.74799997 31
-0.03494674 0.056115575 0.74800003 8
-0.03207615 0.055402003 0.74800003 8
-0.02920557 0.054688431 0.74800003 8
0.031794332 0.056115575 0.74800003 31
0.033947274 0.056115575 0.74800003 31
0.037822559 0.055544715 0.74800003 31
0.041123729 0.055402003 0.74800003 31
0.043994315 0.055402003 0.74800003 31
0.046864897 0.055402003 0.74800003 31
0.049735479 0.055402003 0.74800003 31
0.052366853 0.055164147 0.74799997 31
0.054759003 0.054688431 0.74800003 31
-0.051452592 0.058969874 0.74800003 8
-0.042840842 0.058969874 0.74800003 8
-0.040448688 0.058494162 0.74799997 8
-0.038534965 0.057542726 0.74800003 8
0.022464938 0.058969874 0.74800003 31
0.025574734 0.058494154 0.74799997 31
0.028206103 0.058256298 0.74800003 31
0.030359041 0.057542726 0.74800003 31
0.046864897 0.057542726 0.74800003 31
-0.052170239 0.061110593 0.74800003 8
-0.049299657 0.061110597 0.74800003 8
-0.046429072 0.061110597 0.74800003 8
-0.043797702 0.060872737 0.74799997 8
-0.041405551 0.060397021 0.74800003 8
-0.015570297 0.061824169 0.74800003 8
-0.013417359 0.061110593 0.74800003 8
0.020311998 0.060397021 0.74800003 31
-0.019158527 0.064678468 0.74800003 8
-0.016287943 0.063964888 0.74800003 8
-0.013417359 0.063964888 0.74800003 8
-0.011264422 0.063964888 0.74800003 8
-0.054801609 0.068484195 0.74799997 8
-0.052026711 0.067247339 0.74800003 8
-0.049299657 0.067532755 0.74800009 8
-0.046429072 0.067532755 0.74800009 8
-0.04355849 0.067532755 0.74800009 8
-0.040687904 0.06753277 0.74800009 8
-0.037817322 0.067532755 0.74800009 8
-0.03494674 0.068246342 0.74800003 8
-0.03207615 0.068246335 0.74800003 8
-0.028774982 0.068103626 0.74800003 8
-0.024660477 0.067057051 0.74799997 8
-0.022268325 0.066581331 0.74799997 8
-0.019158527 0.066105612 0.74800003 8
-0.016287943 0.066105612 0.74800003 8
-0.014135005 0.066105612 0.74800003 8
-0.011264422 0.066105612 0.74800003 8
-0.046429072 0.070387058 0.74800003 8
-0.044276133 0.070387058 0.74800003 8
-0.018440882 0.094648577 0.74800003 8
-0.016287943 0.094648577 0.74800003 8
-0.013417359 0.093934998 0.74800003 8
-0.010546776 0.093221426 0.74800003 8
-0.0076761921 0.094648577 0.74800003 8
0.064806044 0.094648577 0.74800003 31
-0.019158527 0.096075721 0.74800003 8
0.061217815 0.098216444 0.74800003 31
0.063370757 0.096075721 0.74800003 31
0.041123729 0.10178431 0.74800003 31
0.05906488 0.10035716 0.74800003 31
-0.26387578 0.15887024 0.74800003 13
-0.26387578 0.16101095 0.74800003 13
-0.26387578 0.16386525 0.74800003 13
-0.1005646 -0.012426168 0.75033331 8
-0.097772501 -0.012437208 0.75099999 8
-0.12066838 -0.0095587187 0.75 8
-0.11850968 -0.010274201 0.75 8
-0.11563143 -0.010274201 0.75 8
-0.099081434 -0.010989683 0.75 8
-0.09692274 -0.010274201 0.75 8
-0.094284333 -0.010035707 0.75 8
-0.13002272 -0.0066967909 0.75 8
-0.12714446 -0.0066967909 0.75 8
-0.12408125 -0.0071773906 0.75033331 8
-0.1216278 -0.0076507665 0.75 8
-0.11635099 -0.0081277546 0.75 8
-0.13218142 -0.0052658273 0.75 8
-0.13074228 -0.0052658273 0.75 8
-0.12498577 -0.0052658273 0.75 8
-0.087568402 0.034801159 0.75 8
-0.08552359 0.034131125 0.75099999 8
-0.10339882 0.037663087 0.75 8
-0.10056461 0.037679825 0.75033331 8
-0.096987359 0.036972716 0.75049996 8
-0.094044484 0.036232125 0.75 8
-0.091287777 0.036280435 0.75099999 8
-0.089126207 0.036280435 0.75099999 8
-0.12227032 0.040579051 0.75099999 8
-0.11563143 0.040525015 0.75 8
-0.11275317 0.040525015 0.75 8
-0.10973272 0.040084053 0.75066662 8
-0.10699666 0.039094053 0.75 8
-0.10353669 0.039146174 0.75099999 8
-0.12082927 0.04201192 0.75099999 8
-0.1186677 0.04201192 0.75099999 8
-0.1157856 0.04201192 0.75099999 8
-0.1129035 0.04201192 0.75099999 8
-0.014172799 0.046964355 0.75 8
-0.018490188 0.050541762 0.75 8
-0.016336698 0.049843129 0.75024998 8
-0.014191695 0.049176276 0.75099999 8
-0.024246706 0.05340369 0.75 8
-0.02208801 0.05340369 0.75 8
-0.019215915 0.052706007 0.75024998 8
-0.016593443 0.052519646 0.75099999 8
0.044831511 0.05340369 0.75 31
0.047251265 0.052949801 0.75033331 31
0.049868464 0.052688207 0.75 31
0.052027158 0.051972724 0.75 31
-0.030003224 0.056265619 0.75 8
-0.027604675 0.055788632 0.75 8
-0.024982914 0.055587646 0.75049996 8
-0.022117462 0.055624202 0.75099999 8
-0.01947554 0.055385392 0.75099999 8
0.025437132 0.056340639 0.75099999 31
0.028309561 0.055605449 0.75075001 31
0.030933453 0.055336013 0.75033331 31
0.034038037 0.054834653 0.75 31
0.036196731 0.054834653 0.75 31
-0.037678581 0.058650557 0.75 8
-0.035074975 0.058470715 0.75074995 8
-0.031484276 0.058489949 0.75099999 8
-0.027881656 0.058489945 0.75099999 8
-0.024999559 0.058489941 0.75099999 8
-0.022117462 0.058489945 0.75099999 8
-0.01947554 0.058728755 0.75099999 8
-0.016353268 0.059206381 0.75099999 8
-0.013461724 0.059166964 0.75049996 8
0.022539539 0.057735045 0.75049996 31
0.024683697 0.057696581 0.75 31
-0.042955387 0.061989471 0.75 8
-0.040556837 0.061512485 0.75 8
-0.037930835 0.061294653 0.75024998 8
-0.035086896 0.061355688 0.75099999 8
-0.031484276 0.061355691 0.75099999 8
-0.027881656 0.061355688 0.75099999 8
-0.024999557 0.061355688 0.75099999 8
-0.022117462 0.061355688 0.75099999 8
-0.019229202 0.061335027 0.75074995 8
-0.016578928 0.061062414 0.75033331 8
-0.052309729 0.064135924 0.75 8
-0.049431473 0.064135924 0.75 8
-0.046553209 0.064135924 0.75 8
-0.043674953 0.064135924 0.75 8
-0.040796693 0.064135924 0.75 8
-0.037943237 0.064178675 0.75049996 8
-0.035086896 0.064221427 0.75099999 8
-0.031484276 0.064221434 0.75099999 8
-0.027881654 0.064221427 0.75099999 8
-0.024999559 0.064221427 0.75099999 8
-0.022095613 0.064157061 0.75024998 8
-0.019209752 0.063420437 0.75 8
-0.054468423 0.066282362 0.75 8
-0.035040177 0.066282362 0.75 8
-0.031442352 0.066282362 0.75 8
-0.02784453 0.066282362 0.75 8
-0.025685834 0.066282362 0.75 8
-0.010574975 0.094901644 0.75 8
-0.019209752 0.097763568 0.75 8
-0.016578928 0.09685304 0.75033331 8
-0.013471171 0.096461043 0.75099999 8
-0.010589074 0.096461043 0.75099999 8
0.064528488 0.097330034 0.75033331 31
-0.021368446 0.099194534 0.75 8
-0.019235365 0.099326797 0.75099999 8
0.061648954 0.10019323 0.75033331 31
0.063624911 0.099326797 0.75099999 31
0.039847612 0.1036254 0.75099999 31
0.043411028 0.10257944 0.75033331 31
0.047052857 0.10219254 0.75099999 31
0.049934953 0.10219254 0.75099999 31
0.052096527 0.10219254 0.75099999 31
-0.26458135 0.15500213 0.75 13
-0.26349303 0.15520878 0.75099999 13
-0.26458135 0.15714857 0.75 13
-0.26349303 0.1573581 0.75099999 13
-0.26301268 0.16046266 0.75099999 13
-0.096587993 -0.01247033 0.75300002 8
-0.094420657 0.037813742 0.75300002 8
-0.091530897 0.037813742 0.75300002 8
-0.088478781 0.037368324 0.75366664 8
-0.086588629 0.036425363 0.75400001 8
-0.10814708 0.040687118 0.75300002 8
-0.10597976 0.040687118 0.75300002 8
-0.10308999 0.040687118 0.75300002 8
-0.10026674 0.03999579 0.75350004 8
-0.097594649 0.039747339 0.75333333 8
-0.094420657 0.03925043 0.75300002 8
-0.091652445 0.03930255 0.75400001 8
-0.1218735 0.043560494 0.75300002 8
-0.11898372 0.044278838 0.75300002 8
-0.11609396 0.044278838 0.75300002 8
-0.11227534 0.043970976 0.75299996 8
-0.10890543 0.042856611 0.75325 8
-0.10605012 0.042871073 0.75349998 8
-0.10315795 0.042151775 0.75349998 8
-0.11914174 0.046495531 0.75400001 8
-0.11617152 0.046464697 0.75349998 8
-0.11253089 0.046454418 0.75333333 8
-0.10973751 0.045056935 0.75400001 8
-0.013515537 0.050777625 0.75349998 8
-0.015674377 0.053617306 0.75300002 8
-0.013507048 0.052898958 0.75300002 8
-0.018564148 0.056490682 0.75300002 8
-0.016396819 0.055772338 0.75300002 8
-0.013747861 0.055532891 0.75300002 8
-0.018564148 0.057927366 0.75300002 8
-0.016396821 0.057927366 0.75300002 8
-0.01422949 0.057927366 0.75300002 8
-0.091652445 0.067355171 0.75400001 8
-0.088758841 0.067355171 0.75400001 8
-0.015674377 0.098154619 0.75300002 8
-0.013507048 0.098154619 0.75300002 8
-0.010623846 0.098219797 0.75349998 8
-0.0084499465 0.096717939 0.75300002 8
-0.016396821 0.099591315 0.75300002 8
-0.013524985 0.099723577 0.75400001 8
0.064516798 0.10030966 0.75300002 31
0.036855962 0.10351447 0.75366664 31
0.043565951 0.10390138 0.75300002 31
0.046497494 0.10399336 0.75366664 31
0.053680152 0.10246469 0.75300002 31
0.055847481 0.10246469 0.75300002 31
0.037836585 0.10547795 0.75400001 31
0.040006794 0.10547795 0.75400001 31
0.042177003 0.10547795 0.75400001 31
-0.26526904 0.1543902 0.75400001 13
-0.26250026 0.15528038 0.75366664 13
-0.26020521 0.1558288 0.75400001 13
-0.26202744 0.15777716 0.75300002 13
-0.086818308 0.037964392 0.75599998 8
-0.096972801 0.040849216 0.75599998 8
-0.094921276 0.040903248 0.75699997 8
-0.092138663 0.040957283 0.75800002 8
-0.088994265 0.039406803 0.75599998 8
-0.10363664 0.04379189 0.75699997 8
-0.10073152 0.042347569 0.75699997 8
-0.098683827 0.042403512 0.75800002 8
-0.12340999 0.045295965 0.75800002 8
-0.12163372 0.04661886 0.75599998 8
-0.10944881 0.045959324 0.75699997 8
-0.12018309 0.048061274 0.75599998 8
-0.11873244 0.048061274 0.75599998 8
-0.08195731 0.056865785 0.75800002 8
-0.07904835 0.056865785 0.75800002 8
-0.076866627 0.056865785 0.75800002 8
-0.097229347 0.059758238 0.75800002 8
-0.095047623 0.059758238 0.75800002 8
-0.092138663 0.059758238 0.75800002 8
-0.088138849 0.059396684 0.75800002 8
-0.084866263 0.05903513 0.75800002 8
-0.08195731 0.05903513 0.75800002 8
-0.07904835 0.059035126 0.75800002 8
-0.076866627 0.058312014 0.75800002 8
-0.09795659 0.061927579 0.75800002 8
-0.095047623 0.061927579 0.75800002 8
-0.092017107 0.061844926 0.75700003 8
-0.088699184 0.061716836 0.75720006 8
-0.085211501 0.062006079 0.75719994 8
-0.08195731 0.061927583 0.75800002 8
-0.079290755 0.061686546 0.75800008 8
-0.096972801 0.063927799 0.75599998 8
-0.094796836 0.064649001 0.75599998 8
-0.09189555 0.064649001 0.75599998 8
-0.088994265 0.064649001 0.75599998 8
-0.086092994 0.064649001 0.75599998 8
-0.082886644 0.064607002 0.75719994 8
-0.079775587 0.06409692 0.75800002 8
-0.094071515 0.06681262 0.75599998 8
-0.085747361 0.067461051 0.7568 8
-0.088345505 0.069758914 0.75666666 8
-0.015778456 0.10169884 0.75800002 8
-0.014323976 0.10169884 0.75800002 8
-0.011384896 0.099988088 0.75599998 8
0.05026741 0.10431532 0.75599998 31
0.058400035 0.10314506 0.75800002 31
0.029310431 0.10748375 0.75800002 31
0.031492151 0.10748375 0.75800002 31
0.034643527 0.10700167 0.75800008 31
0.03703548 0.10690841 0.75733328 31
0.040219031 0.10748375 0.75800002 31
0.043739516 0.10575773 0.75599998 31
0.045977175 0.10589762 0.75699997 31
0.048218671 0.10603752 0.75800002 31
-0.085932262 0.037489504 0.76099998 8
-0.09007562 0.041011315 0.759 8
-0.087724857 0.040564626 0.75966668 8
-0.085932262 0.040393405 0.76099998 8
-0.12535866 0.043297313 0.76099998 8
-0.10099861 0.043907586 0.759 8
-0.097484931 0.043603405 0.75999999 8
-0.09456829 0.04324137 0.75999999 8
-0.091432154 0.043129742 0.76059997 8
-0.088365994 0.043055322 0.76099998 8
-0.12446573 0.046139546 0.75999999 8
-0.10900881 0.046803854 0.759 8
-0.10696495 0.046141453 0.75999999 8
-0.1044286 0.045959219 0.76099998 8
-0.10053463 0.045475233 0.76099998 8
-0.097614154 0.045475237 0.76099998 8
-0.1221164 0.048251994 0.759 8
-0.066949189 0.049831089 0.76099998 8
-0.064758837 0.049831089 0.76099998 8
-0.061838359 0.049831089 0.76099998 8
-0.093963563 0.052734993 0.76099998 8
-0.091043092 0.052734993 0.76099998 8
-0.088122621 0.052734993 0.76099998 8
-0.085202143 0.052009016 0.76099998 8
-0.082281679 0.052009016 0.76099998 8
-0.079361193 0.052009016 0.76099998 8
-0.07634028 0.051939718 0.75999999 8
-0.073423646 0.051939722 0.75999999 8
-0.070552915 0.051974367 0.76050001 8
-0.067679301 0.052009016 0.76099998 8
-0.064758837 0.052009016 0.76099998 8
-0.061838359 0.052009016 0.76099998 8
-0.059648003 0.052009016 0.76099998 8
-0.099804506 0.055638894 0.76099998 8
-0.097484931 0.055926863 0.75999999 8
-0.094769865 0.055540133 0.75966668 8
-0.091409788 0.055709288 0.75950003 8
-0.08796823 0.055540141 0.75966668 8
-0.084978223 0.055492669 0.759 8
-0.082065433 0.0547686 0.759 8
-0.079152629 0.0547686 0.759 8
-0.076094195 0.055203043 0.759 8
-0.073327035 0.055492673 0.759 8
-0.07041423 0.055492669 0.759 8
-0.067501441 0.055492669 0.759 8
-0.064715803 0.054876361 0.76049995 8
-0.061838359 0.054912921 0.76099998 8
-0.059161261 0.055154908 0.76099998 8
-0.10040252 0.057739891 0.75999999 8
-0.098328553 0.058871653 0.759 8
-0.095173016 0.058388941 0.759 8
-0.091532022 0.058388937 0.759 8
-0.088619225 0.058388941 0.759 8
-0.075997092 0.059354365 0.759 8
-0.073327035 0.059113011 0.759 8
-0.07041423 0.059113011 0.759 8
-0.067634359 0.059230305 0.76049995 8
-0.06500221 0.057574827 0.76099998 8
-0.061838359 0.057090845 0.76099998 8
-0.059648003 0.057090845 0.76099998 8
-0.078424431 0.062733345 0.759 8
-0.076239832 0.062009279 0.759 8
-0.07337486 0.062050607 0.75950003 8
-0.070780665 0.061876852 0.7603333 8
-0.081337228 0.065629624 0.759 8
-0.078909896 0.065146916 0.759 8
-0.07634028 0.064992018 0.75999999 8
-0.07425037 0.064350598 0.76099998 8
-0.084250025 0.068525888 0.759 8
-0.082308166 0.067560464 0.759 8
-0.079361193 0.067254506 0.76099998 8
-0.087891027 0.07142216 0.759 8
-0.085033722 0.07074514 0.75950003 8
-0.085932262 0.073062308 0.76099998 8
-0.012886474 0.101833 0.759 8
-0.010701874 0.10110894 0.759 8
-0.01730114 0.10210133 0.76099998 8
-0.009999956 0.10210133 0.76099998 8
0.052651484 0.10472928 0.759 31
0.054836079 0.10472928 0.759 31
0.057020683 0.10472928 0.759 31
0.043184891 0.10762554 0.759 31
0.046097688 0.10762554 0.759 31
0.049296904 0.10723737 0.75966668 31
0.031533696 0.10979775 0.759 31
0.034446493 0.10979775 0.759 31
0.037359294 0.10979775 0.759 31
-0.084805034 0.038366131 0.764 8
-0.084694028 0.040499568 0.76300001 8
-0.083339043 0.040552646 0.764 8
-0.12805182 0.044196833 0.764 8
-0.087622181 0.044138983 0.76300001 8
-0.085426062 0.043411098 0.76300001 8
-0.082606047 0.043467995 0.764 8
-0.079674058 0.044196833 0.764 8
-0.077475071 0.044196833 0.764 8
-0.12801015 0.046368405 0.76374996 8
-0.12568812 0.047050521 0.76300001 8
-0.10299496 0.047050521 0.76300001 8
-0.10006681 0.047050521 0.76300001 8
-0.096894652 0.046565264 0.76300001 8
-0.094210513 0.046322636 0.76300001 8
-0.091282368 0.046322636 0.76300001 8
-0.088354222 0.046322636 0.76300001 8
-0.085426062 0.046322636 0.76300001 8
-0.082497917 0.046322636 0.76300001 8
-0.079621911 0.046352513 0.76349998 8
-0.076716714 0.046367928 0.76374996 8
-0.073810086 0.046383344 0.764 8
-0.070878103 0.046383344 0.764 8
-0.06792412 0.046367928 0.76374996 8
-0.064971581 0.046352513 0.76349998 8
-0.062299058 0.046605736 0.76366663 8
-0.12731883 0.048569858 0.764 8
-0.12482124 0.049034562 0.76366663 8
-0.12292086 0.050027531 0.764 8
-0.10595806 0.049250539 0.76324999 8
-0.10299496 0.04923417 0.76300001 8
-0.10006681 0.049234167 0.76300001 8
-0.097138666 0.049234167 0.76300001 8
-0.094210513 0.04923417 0.76300001 8
-0.091282368 0.04923417 0.76300001 8
-0.088354222 0.049234167 0.76300001 8
-0.085426062 0.049234167 0.76300001 8
-0.082497917 0.049234167 0.76300001 8
-0.079569772 0.049234167 0.76300001 8
-0.076641619 0.04923417 0.76300001 8
-0.073713467 0.04923417 0.76300001 8
-0.070785329 0.04923417 0.76300001 8
-0.06810119 0.048991542 0.76300001 8
-0.064929023 0.048506286 0.76300001 8
-0.062000878 0.048506286 0.76300001 8
-0.10532894 0.051485211 0.764 8
-0.10309644 0.052197199 0.76374996 8
-0.10006681 0.052145705 0.76300001 8
-0.097138658 0.052145705 0.76300001 8
-0.094210513 0.05141782 0.76300001 8
-0.091282368 0.05141782 0.76300001 8
-0.088354215 0.05141782 0.76300001 8
-0.10239695 0.055129398 0.764 8
-0.10006681 0.054329354 0.76300001 8
-0.0978707 0.054329354 0.76300001 8
-0.064196989 0.058696657 0.76300001 8
-0.062082134 0.058773585 0.764 8
-0.059150152 0.058044747 0.764 8
-0.067857176 0.061608195 0.76300001 8
-0.065229766 0.060690869 0.76366663 8
-0.073713467 0.06524761 0.76300001 8
-0.070832193 0.063834116 0.76349998 8
-0.067946114 0.063146606 0.764 8
-0.081765883 0.068887025 0.76300001 8
-0.080407053 0.068977304 0.764 8
-0.076691367 0.067475446 0.76349998 8
-0.07307709 0.066061959 0.764 8
-0.082777649 0.070858777 0.76333332 8
-0.087737024 0.073350333 0.764 8
-0.085482523 0.074031174 0.76349998 8
-0.0085621634 0.1009139 0.76300001 8
-0.015903352 0.10396151 0.764 8
-0.013694913 0.10389347 0.76349998 8
-0.011505371 0.10396151 0.764 8
-0.017369345 0.10687687 0.764 8
-0.42051747 0.18267597 0.764 0
-0.42051747 0.18413365 0.764 0
-0.083557203 0.038466565 0.76599997 8
-0.082087375 0.040658802 0.76599997 8
-0.08061754 0.041389547 0.76599997 8
-0.068123981 0.041389547 0.76599997 8
-0.065184318 0.041389547 0.76599997 8
-0.13059179 0.044312529 0.76599997 8
-0.079882622 0.042851038 0.76599997 8
-0.076942965 0.043581784 0.76599997 8
-0.074003294 0.044312529 0.76599997 8
-0.071063638 0.043581784 0.76599997 8
-0.068123981 0.043581784 0.76599997 8
-0.065184318 0.043581784 0.76599997 8
-0.062489629 0.043825369 0.76599997 8
-0.13059179 0.046504766 0.76599997 8
-0.06150974 0.04577402 0.76599997 8
-0.12961191 0.049184162 0.76599997 8
-0.12691721 0.050158493 0.76599997 8
-0.10633958 0.05235073 0.76599997 8
-0.10413483 0.054542966 0.76599997 8
-0.0644494 0.061850421 0.76599997 8
-0.062979572 0.06038893 0.76599997 8
-0.07032872 0.064773411 0.76599997 8
-0.068858892 0.064773411 0.76599997 8
-0.074003294 0.067696385 0.76599997 8
-0.071798556 0.066234894 0.76599997 8
-0.079637647 0.070132203 0.76599997 8
-0.077187933 0.06964504 0.76599997 8
-0.074738212 0.069157876 0.76599997 8
-0.082822293 0.072811604 0.76599997 8
-0.085027032 0.07500384 0.76599997 8
-0.010065659 0.10423367 0.76599997 8
-0.008595828 0.10350291 0.76599997 8
-0.015944982 0.10569515 0.76599997 8
-0.013740236 0.10569515 0.76599997 8
-0.42161828 0.17803895 0.76599997 0
-0.42161828 0.18096194 0.76599997 0
-0.082865007 0.037622336 0.76866668 8
-0.08014334 0.037858505 0.76849997 8
-0.076506518 0.03861722 0.76899999 8
-0.072571613 0.038128149 0.76899999 8
-0.06982094 0.037858501 0.76850003 8
-0.066871688 0.037858501 0.76850003 8
-0.063942984 0.037871055 0.76875001 8
-0.061750643 0.03861722 0.76899999 8
-0.13405442 0.04155165 0.76899999 8
-0.079845585 0.040520746 0.76799995 8
-0.076741174 0.040639285 0.76840001 8
-0.073950909 0.041009184 0.76799995 8
-0.070807084 0.040618435 0.76800001 8
-0.066828176 0.040032309 0.76800001 8
-0.06363523 0.040520746 0.76799995 8
-0.061750643 0.040084433 0.76899999 8
-0.13553001 0.043752469 0.76899999 8
-0.13327354 0.043738008 0.76874995 8
-0.076407023 0.042962924 0.76800001 8
-0.074196517 0.042962924 0.76800001 8
-0.13553001 0.046686903 0.76899999 8
-0.13314328 0.046626192 0.76800001 8
-0.13553001 0.048887722 0.76899999 8
-0.13318685 0.049573176 0.76824999 8
-0.13093276 0.05028946 0.76800001 8
-0.063144006 0.062011912 0.76800001 8
-0.060933508 0.060546607 0.76800001 8
-0.071249187 0.06714049 0.76800001 8
-0.076407023 0.070803754 0.76800001 8
-0.073982798 0.07034605 0.76833338 8
-0.082301706 0.073734373 0.76800001 8
-0.08014334 0.073049717 0.76849997 8
-0.076439552 0.072300427 0.76833326 8
-0.088196374 0.075199679 0.76800001 8
-0.085985869 0.076664984 0.76800001 8
-0.083356231 0.075754024 0.76866668 8
0.070680179 0.016695388 0.773 8
0.059555709 0.019645082 0.773 8
0.061780602 0.018907659 0.773 8
0.064747125 0.018907659 0.773 8
0.067713648 0.018907659 0.773 8
0.070680179 0.018907659 0.773 8
0.023215771 0.022594774 0.773 8
0.026182294 0.022594774 0.773 8
0.029148821 0.022594774 0.773 8
0.031373713 0.022594774 0.773 8
0.058814079 0.021857351 0.773 8
0.061780602 0.021857351 0.773 8
0.064747125 0.021857351 0.773 8
0.067713648 0.021857351 0.773 8
0.069938548 0.021857351 0.773 8
-0.010157643 0.024069622 0.773 8
-0.0079327486 0.024807045 0.773 8
-0.0049662236 0.025544468 0.773 8
-0.0019996976 0.025544468 0.773 8
0.00096682773 0.025544468 0.773 8
0.0039333533 0.025544468 0.773 8
0.0068998784 0.025544468 0.773 8
0.0098664043 0.025544468 0.773 8
0.023462981 0.024561236 0.773 8
0.026182294 0.024807045 0.773 8
0.029148821 0.024807045 0.773 8
0.031373713 0.024807045 0.773 8
0.059061289 0.024561236 0.773 8
0.061780602 0.024807045 0.773 8
0.064499915 0.024561236 0.773 8
0.067713648 0.024069622 0.773 8
-0.0079327486 0.028494162 0.773 8
-0.0049662236 0.028494162 0.773 8
-0.0019996976 0.028494159 0.773 8
0.00096682768 0.028494162 0.773 8
0.0039333533 0.028494162 0.773 8
0.0068998784 0.028494164 0.773 8
0.0098664043 0.028494162 0.773 8
0.012091299 0.027756739 0.773 8
0.026923927 0.027019314 0.773 8
0.029148821 0.027019314 0.773 8
0.031373713 0.027019314 0.773 8
-0.069488153 0.032918703 0.773 8
-0.06726326 0.032918703 0.773 8
-0.010131362 0.032098018 0.77100003 8
-0.0079327486 0.032181278 0.773 8
-0.0049662236 0.032181278 0.773 8
-0.0019996976 0.032181278 0.773 8
0.0007196173 0.031935472 0.773 8
0.0039333533 0.031443857 0.773 8
-0.081636913 0.035285249 0.77100009 8
-0.079026997 0.035084572 0.77200001 8
-0.076113097 0.035107773 0.77249998 8
-0.073149443 0.035107773 0.77249998 8
-0.070138931 0.035084572 0.77200001 8
-0.067176245 0.035084572 0.77200001 8
-0.064254664 0.035107769 0.77250004 8
-0.06133021 0.035868395 0.773 8
-0.010157643 0.034393549 0.773 8
-0.0071911179 0.034393549 0.773 8
-0.0049662236 0.034393549 0.773 8
-0.0027413291 0.034393549 0.773 8
-0.13920151 0.038818087 0.773 8
-0.1369766 0.038080662 0.773 8
-0.1342573 0.038326472 0.773 8
-0.078184918 0.037246626 0.77100003 8
-0.075965777 0.037246626 0.77100003 8
-0.073746644 0.037246626 0.77100003 8
-0.060977217 0.037770446 0.77166671 8
-0.13994314 0.041030362 0.773 8
-0.1367113 0.040950265 0.77149999 8
-0.13353173 0.040713783 0.77166671 8
-0.13969593 0.043734249 0.773 8
-0.13736193 0.043866262 0.77100003 8
-0.13920151 0.046192322 0.773 8
-0.13736193 0.046808325 0.77100003 8
-0.13662222 0.049750388 0.77100003 8
-0.12774566 0.051956933 0.77100003 8
-0.12552652 0.051956933 0.77100003 8
-0.34834155 0.0675776 0.773 20
-0.34685829 0.068315022 0.773 20
