# .PCD v0.7 - Point Cloud Data file format
VERSION 0.7
FIELDS x y z
SIZE 4 4 4
TYPE F F F
COUNT 1 1 1
WIDTH 488
HEIGHT 1
VIEWPOINT 0 0 0 1 0 0 0
POINTS 488
DATA ascii
-0.043157909 -0.043281384 -0.043240383
-0.035252027 -0.043838549 -0.043640178
-0.025335956 -0.043700818 -0.04362984
-0.014819883 -0.043785319 -0.04363272
-0.0047926912 -0.043786775 -0.043712728
0.0046371724 -0.043818202 -0.043694243
0.014942897 -0.043740708 -0.043788079
0.025277207 -0.043824043 -0.043811489
0.034979634 -0.04388804 -0.043789659
0.043302078 -0.043384109 -0.043486558
-0.043467779 -0.034795448 -0.043911725
-0.034783896 -0.034997292 -0.045000054
-0.025007537 -0.034690876 -0.045000054
-0.015171015 -0.034946389 -0.045000054
-0.0048602745 -0.035320897 -0.04500005
0.0049923807 -0.035145402 -0.045000054
0.015375632 -0.034843776 -0.045000054
0.024968056 -0.035147965 -0.045000054
0.034859024 -0.035243087 -0.045000054
0.043844387 -0.035039879 -0.043704316
-0.043481827 -0.025182938 -0.044041861
-0.035478331 -0.025476856 -0.045000054
-0.024720168 -0.024791414 -0.045000058
-0.014867052 -0.025014902 -0.045000058
-0.0051580598 -0.024745638 -0.04500005
0.0048516011 -0.024940651 -0.045000054
0.014864972 -0.024723323 -0.045000058
0.024633853 -0.024966022 -0.045000054
0.035386872 -0.02495564 -0.04500005
0.043829542 -0.025063746 -0.043676045
-0.043873586 -0.01500929 -0.043705482
-0.035286903 -0.014775169 -0.045000054
-0.024811715 -0.015292641 -0.045000054
-0.014823944 -0.014828816 -0.045000054
-0.0048847664 -0.015012236 -0.045000054
0.0050054528 -0.015045027 -0.045000054
0.015269303 -0.015137375 -0.045000054
0.025282022 -0.015061676 -0.045000054
0.03463519 -0.015128488 -0.045000054
0.044001304 -0.015094404 -0.043697782
-0.043912884 -0.0051711951 -0.043662827
-0.03492419 -0.0048511135 -0.045000054
-0.024709182 -0.0048166392 -0.045000054
-0.014630994 -0.0048048454 -0.045000058
-0.0053065168 -0.0048059928 -0.045000054
0.0050226422 -0.005115503 -0.045000054
0.014719996 -0.0050467611 -0.045000054
0.025020398 -0.0051629231 -0.045000054
0.035076506 -0.005432996 -0.045000054
0.043840349 -0.0049826005 -0.043804228
-0.043716148 0.0052080904 -0.0438435
-0.035443209 0.0053426516 -0.045000054
-0.025117397 0.0050362865 -0.045000058
-0.01496462 0.0052148467 -0.04500005
-0.0053770193 0.0053087026 -0.045000054
0.0050659259 0.0049166502 -0.045000054
0.014935819 0.0046115951 -0.045000054
0.025361726 0.0052320994 -0.045000054
0.034854818 0.0048825936 -0.045000054
0.043694697 0.0054734205 -0.043814689
-0.043738708 0.015206289 -0.04384895
-0.035026088 0.015088825 -0.045000054
-0.025065592 0.01507453 -0.045000054
-0.014794194 0.015205802 -0.045000054
-0.0050925431 0.015145732 -0.045000054
0.0051402338 0.015324369 -0.045000054
0.014893246 0.014959643 -0.045000054
0.024731474 0.015168267 -0.045000054
0.035323296 0.014894393 -0.045000054
0.043839402 0.014875438 -0.043414734
-0.043811779 0.024930978 -0.043636091
-0.03473736 0.024688831 -0.045000054
-0.024725223 0.025058905 -0.045000054
-0.015335903 0.024908727 -0.045000054
-0.0052467547 0.024991943 -0.045000054
0.0049117347 0.024802195 -0.045000054
0.015078965 0.024882017 -0.045000054
0.024901934 0.025315944 -0.045000054
0.035330426 0.025047429 -0.045000054
0.043666344 0.025000526 -0.043944519
-0.043792401 0.035020899 -0.043622099
-0.035099208 0.034592938 -0.045000054
-0.024880078 0.034988094 -0.045000054
-0.015037977 0.034750901 -0.045000054
-0.0052110436 0.03503919 -0.045000058
0.0049000941 0.035008132 -0.04500005
0.01514788 0.034961652 -0.045000054
0.024841519 0.035077143 -0.045000054
0.034702081 0.035279032 -0.04500005
0.043889128 0.035207812 -0.043623678
-0.043436866 0.04361232 -0.043226287
-0.034902584 0.043684427 -0.043842446
-0.02499914 0.043848839 -0.043619018
-0.015464759 0.04398473 -0.04350888
-0.004756514 0.043602727 -0.043699127
0.0048338487 0.043772228 -0.043642636
0.014826214 0.04401296 -0.043529619
0.024465563 0.043625496 -0.043834243
0.034747157 0.043697495 -0.043761726
0.043274917 0.043352302 -0.043286987
-0.043747935 -0.04373182 -0.035006516
-0.034786008 -0.045000054 -0.035337105
-0.025287911 -0.04500005 -0.034774233
-0.015219786 -0.045000054 -0.034923628
-0.004735677 -0.045000054 -0.034859337
0.0043690563 -0.045000054 -0.034690503
0.014743743 -0.045000054 -0.035190195
0.025152303 -0.045000054 -0.034950934
0.035050806 -0.045000054 -0.034811668
0.043841042 -0.043584753 -0.034709077
-0.04500005 -0.035370026 -0.034903079
0.045000054 -0.035085544 -0.035110373
-0.045000054 -0.024822207 -0.035187379
0.045000054 -0.024751054 -0.034732968
-0.045000054 -0.015105582 -0.034936376
0.045000054 -0.014965013 -0.034932666
-0.045000054 -0.0050095422 -0.034754317
0.04500005 -0.0045290384 -0.034602106
-0.045000054 0.005092951 -0.034975834
0.045000054 0.0050399774 -0.035185628
-0.045000054 0.015086761 -0.035036143
0.04500005 0.015013806 -0.035388224
-0.04500005 0.024829498 -0.034480166
0.045000054 0.025399577 -0.034874156
-0.045000054 0.035010606 -0.035109386
0.045000054 0.034770433 -0.035068337
-0.043783695 0.043885756 -0.034918807
-0.03511855 0.045000054 -0.034874126
-0.025120007 0.04500005 -0.035122547
-0.014963046 0.045000054 -0.035191022
-0.005021709 0.04500005 -0.035049003
0.0053658942 0.045000054 -0.034981482
0.0150468 0.04500005 -0.035197902
0.024806593 0.045000054 -0.035004459
0.035001639 0.045000054 -0.035023443
0.043683797 0.043776292 -0.035213366
-0.043631811 -0.043772742 -0.025135495
-0.035088692 -0.04500005 -0.025149185
-0.02531972 -0.04500005 -0.025004197
-0.01523295 -0.045000054 -0.025203114
-0.0045757466 -0.04500005 -0.025013342
0.0051175198 -0.045000054 -0.025224185
0.014423634 -0.045000054 -0.025448417
0.025224851 -0.045000054 -0.024610879
0.034926824 -0.045000054 -0.024972046
0.043682005 -0.043728653 -0.024987357
-0.04500005 -0.034747031 -0.025143029
0.04500005 -0.035318688 -0.02462087
-0.045000054 -0.024738396 -0.024978334
0.04500005 -0.024882482 -0.025105679
-0.045000054 -0.015415885 -0.025293423
0.04500005 -0.015309681 -0.025425527
-0.045000054 -0.0049809888 -0.024859477
0.045000054 -0.0049590715 -0.02528307
-0.045000054 0.0046492023 -0.024869753
0.045000054 0.004753673 -0.024963114
-0.045000054 0.015150727 -0.024705665
0.045000054 0.014628761 -0.025482815
-0.045000054 0.025108224 -0.025023658
0.045000054 0.024578895 -0.024904873
-0.04500005 0.034932759 -0.025043644
0.045000054 0.035219379 -0.0250473
-0.043780588 0.043830931 -0.025239674
-0.035364889 0.045000054 -0.025131341
-0.025061905 0.045000058 -0.024830725
-0.014674323 0.045000054 -0.025170099
-0.0048426921 0.04500005 -0.025034497
0.0051876837 0.04500005 -0.024911251
0.014978822 0.04500005 -0.025232837
0.0253051 0.045000054 -0.024952184
0.034431916 0.04500005 -0.024725173
0.043837134 0.043714404 -0.024946466
-0.043858692 -0.043686371 -0.015040156
-0.034728769 -0.045000054 -0.015215279
-0.025008567 -0.045000054 -0.014947766
-0.015062792 -0.04500005 -0.015133893
-0.0050157374 -0.045000054 -0.014923699
0.0053093969 -0.045000054 -0.014983173
0.014930549 -0.045000054 -0.015064621
0.025281593 -0.045000054 -0.014822709
0.034912948 -0.045000054 -0.014978904
0.043687314 -0.043829206 -0.014604378
-0.045000054 -0.035111289 -0.014783098
0.045000054 -0.035187107 -0.014911707
-0.04500005 -0.024922568 -0.015004742
0.045000054 -0.025231352 -0.01499894
-0.045000054 -0.014981433 -0.015479561
0.045000054 -0.015067644 -0.014902268
-0.045000054 -0.0048413249 -0.015208452
0.04500005 -0.0049005547 -0.014768925
-0.045000054 0.0049554561 -0.015053419
0.045000054 0.0050788522 -0.015084084
-0.045000054 0.014787112 -0.015211047
0.04500005 0.014871067 -0.015390181
-0.045000054 0.024794249 -0.014746491
0.045000054 0.024946421 -0.015110254
-0.045000054 0.035161812 -0.0146797
0.045000054 0.034827203 -0.015270673
-0.043731857 0.043683805 -0.015228606
-0.034970261 0.045000054 -0.015149313
-0.02489168 0.04500005 -0.014820501
-0.014759127 0.045000054 -0.01509766
-0.0053552655 0.04500005 -0.014740407
0.0052183638 0.045000054 -0.014979367
0.015235781 0.045000054 -0.0153282
0.02495759 0.045000054 -0.015108039
0.034963273 0.04500005 -0.014906561
0.043764655 0.043650743 -0.01497875
-0.043570142 -0.043802537 -0.0050671622
-0.035149492 -0.045000054 -0.0049155867
-0.024947003 -0.045000058 -0.0050086682
-0.014618028 -0.045000054 -0.0050485311
-0.0051509831 -0.045000054 -0.004606646
0.005011138 -0.045000054 -0.0054899496
0.014931347 -0.04500005 -0.0055627371
0.024984607 -0.04500005 -0.0052228612
0.035196599 -0.04500005 -0.0049158693
0.044069164 -0.043363325 -0.0049781338
-0.045000054 -0.034585238 -0.005054492
0.045000054 -0.034921706 -0.0050613876
-0.045000054 -0.024691412 -0.004824446
0.045000054 -0.024844352 -0.0049086502
-0.04500005 -0.014903542 -0.0049645398
0.045000054 -0.014769973 -0.0052021169
-0.045000054 -0.0052949879 -0.0050735865
0.045000054 -0.0052308836 -0.0050546811
-0.045000054 0.0046927491 -0.0045644324
0.04500005 0.0050552161 -0.0050465493
-0.045000054 0.015013473 -0.0050981869
0.045000054 0.014857951 -0.0050490862
-0.04500005 0.024665972 -0.0047583771
0.04500005 0.025063451 -0.0048772278
-0.04500005 0.035044055 -0.0051618833
0.045000054 0.034883246 -0.0047566658
-0.043585472 0.043856692 -0.0056547965
-0.034877885 0.045000054 -0.005048376
-0.02540667 0.045000054 -0.0049019875
-0.014937771 0.045000054 -0.0049713184
-0.0054359222 0.045000054 -0.0050696498
0.0050764992 0.045000054 -0.0048941094
0.015053561 0.045000054 -0.0049298848
0.025306668 0.045000054 -0.0048260242
0.035090547 0.045000054 -0.0048595783
0.043852359 0.043693095 -0.0052749836
-0.043761034 -0.043713458 0.0051617743
-0.034789182 -0.045000054 0.0047595226
-0.025198819 -0.04500005 0.005136814
-0.014893056 -0.045000054 0.0053055654
-0.004939869 -0.045000054 0.0051011587
0.0048594493 -0.045000054 0.0049277539
0.014954439 -0.045000054 0.0051298765
0.024956036 -0.04500005 0.0050513539
0.034749944 -0.045000054 0.0050647622
0.043678306 -0.043837149 0.0056523886
-0.045000054 -0.035257358 0.0050213104
0.04500005 -0.035049684 0.0054043694
-0.04500005 -0.025322348 0.0048455317
0.045000054 -0.024793457 0.0048332708
-0.045000054 -0.01499092 0.0047939941
0.04500005 -0.014877979 0.0048318021
-0.045000054 -0.0048423414 0.0047820364
0.04500005 -0.0050471667 0.0051359981
-0.04500005 0.00477179 0.0047804546
0.045000054 0.0051619564 0.0053644809
-0.04500005 0.015089724 0.004940358
0.04500005 0.015102817 0.0052418839
-0.045000054 0.024792837 0.0048351483
0.04500005 0.025244016 0.005329458
-0.045000054 0.034941051 0.0048465282
0.045000054 0.034951981 0.0049129436
-0.04385715 0.04349868 0.0054435404
-0.035196856 0.04500005 0.0051541305
-0.025008053 0.04500005 0.0050397026
-0.015006992 0.045000054 0.0049773515
-0.0049269982 0.04500005 0.0046536443
0.0048732553 0.045000054 0.0049236957
0.0148955 0.045000054 0.00475374
0.025142975 0.04500005 0.0054581761
0.035102677 0.04500005 0.0052865697
0.043696158 0.043682426 0.0051649753
-0.043671057 -0.043831371 0.015321274
-0.03495859 -0.045000054 0.014734461
-0.024834841 -0.045000054 0.015005209
-0.015180831 -0.045000058 0.015262384
-0.004819606 -0.045000054 0.015363581
0.0049963421 -0.045000054 0.014789468
0.015024565 -0.04500005 0.015128043
0.02515785 -0.04500005 0.014705959
0.035077892 -0.04500005 0.014732002
0.043626238 -0.043826085 0.015386714
-0.04500005 -0.034711886 0.015121996
0.045000054 -0.034913994 0.014689893
-0.045000058 -0.02468442 0.015017031
0.045000054 -0.02512552 0.014975512
-0.045000054 -0.014629372 0.015038792
0.045000054 -0.014946981 0.015123194
-0.045000054 -0.0044473219 0.015149456
0.04500005 -0.0050541582 0.014705743
-0.045000054 0.0051509975 0.014591459
0.04500005 0.0051029627 0.014845018
-0.045000054 0.015183359 0.014815195
0.04500005 0.015010317 0.014874991
-0.04500005 0.024838261 0.014855208
0.045000054 0.024906179 0.01472626
-0.045000054 0.03510008 0.015149254
0.045000054 0.034970891 0.015341837
-0.043730151 0.043687958 0.014978743
-0.034777071 0.04500005 0.01474204
-0.024704197 0.045000054 0.014934022
-0.015117308 0.04500005 0.014866492
-0.0048558149 0.04500005 0.014925627
0.0051953522 0.045000058 0.014986046
0.015287216 0.045000054 0.014886271
0.025029317 0.04500005 0.014969071
0.035213687 0.04500005 0.014944208
0.043886423 0.043645404 0.014581591
-0.043548815 -0.043639988 0.024961241
-0.035104495 -0.04500005 0.025235796
-0.025153724 -0.045000054 0.025045684
-0.014781489 -0.04500005 0.025096854
-0.0051553664 -0.04500005 0.024784595
0.0051553948 -0.04500005 0.025105305
0.015155731 -0.04500005 0.024848877
0.024872081 -0.04500005 0.025182225
0.034969192 -0.045000054 0.025443338
0.043608975 -0.043772895 0.02504788
-0.045000054 -0.035248268 0.025131039
0.045000054 -0.034738865 0.025069641
-0.045000054 -0.02506521 0.024945293
0.045000054 -0.024869656 0.024797432
-0.045000054 -0.015114644 0.024833316
0.045000054 -0.015027155 0.025006562
-0.045000054 -0.0050655603 0.024966473
0.045000054 -0.0053370004 0.025030402
-0.045000054 0.0048184912 0.025220659
0.045000054 0.0049554016 0.024949141
-0.045000054 0.014683614 0.025343278
0.045000054 0.01528087 0.024910677
-0.04500005 0.024585441 0.024771126
0.045000054 0.025086146 0.025032941
-0.045000054 0.034946233 0.024839239
0.04500005 0.034848247 0.024922002
-0.043870859 0.043661788 0.025073051
-0.035047188 0.04500005 0.024798186
-0.024578966 0.045000054 0.025062071
-0.015070199 0.045000054 0.02490034
-0.0049340576 0.045000058 0.025226884
0.0049778866 0.045000054 0.025439769
0.014889837 0.045000054 0.024751218
0.02506897 0.045000054 0.025520546
0.03491902 0.045000054 0.024929922
0.043805592 0.043721776 0.024788549
-0.043654043 -0.043770961 0.035183538
-0.034859333 -0.045000054 0.034705963
-0.025001131 -0.045000054 0.03498802
-0.014781255 -0.045000054 0.035186287
-0.0048123104 -0.04500005 0.035442386
0.0051873042 -0.045000054 0.03507261
0.014804738 -0.045000054 0.034590889
0.025083525 -0.04500005 0.03466947
0.035170708 -0.045000054 0.034841314
0.043763202 -0.04352833 0.03516664
-0.045000054 -0.034991093 0.035054598
0.04500005 -0.035245005 0.035022333
-0.045000058 -0.024711248 0.035015605
0.045000054 -0.02502458 0.034968432
-0.045000054 -0.014934708 0.034900371
0.045000054 -0.015074558 0.034622356
-0.04500005 -0.0047953315 0.034633271
0.045000054 -0.0051236558 0.034547217
-0.04500005 0.0049178586 0.034731966
0.045000054 0.0049090921 0.035201408
-0.045000054 0.015115485 0.035316952
0.045000054 0.015309155 0.034802146
-0.045000054 0.024883993 0.034860354
0.04500005 0.024783533 0.035032909
-0.04500005 0.034990173 0.034764685
0.045000054 0.035102203 0.034714676
-0.043764986 0.04360396 0.03526523
-0.03487733 0.045000054 0.035216399
-0.024851756 0.04500005 0.034979582
-0.015030907 0.04500005 0.034875669
-0.0048049944 0.045000054 0.035032291
0.0051322277 0.045000054 0.034928434
0.014738956 0.045000054 0.034986705
0.02539633 0.04500005 0.034611002
0.035207342 0.045000054 0.03489136
0.043900225 0.043654364 0.03517402
-0.043191776 -0.043365005 0.043279268
-0.034943972 -0.043617249 0.043797467
-0.024935083 -0.043970216 0.043585971
-0.014775916 -0.043797258 0.043642245
-0.0047162846 -0.043734953 0.043786701
0.0051808194 -0.043826498 0.043706629
0.015295032 -0.043526281 0.043910623
0.024716467 -0.043806575 0.043821253
0.034741715 -0.043855309 0.043900508
0.043304272 -0.043198138 0.043427654
-0.043511752 -0.034782294 0.043708924
-0.035082415 -0.035151158 0.045000054
-0.025085226 -0.035050526 0.045000054
-0.015000378 -0.034963965 0.045000054
-0.0049890871 -0.034921456 0.045000054
0.0049016085 -0.035286363 0.045000054
0.015117311 -0.035139225 0.045000054
0.024984274 -0.034862097 0.045000054
0.034881506 -0.034954257 0.045000054
0.043820411 -0.035235416 0.043756858
-0.043961786 -0.024891157 0.043586772
-0.035057236 -0.024936799 0.045000054
-0.024693947 -0.024990311 0.04500005
-0.014974611 -0.025128761 0.045000054
-0.0050912946 -0.025213243 0.04500005
0.0052726646 -0.025058711 0.045000054
0.014827098 -0.02482933 0.04500005
0.024958517 -0.024972294 0.045000054
0.035102755 -0.025437506 0.045000054
0.043536786 -0.025161061 0.043758906
-0.04379395 -0.014895102 0.043784909
-0.03504087 -0.015052396 0.045000058
-0.025337595 -0.014874285 0.045000054
-0.01491717 -0.015070661 0.04500005
-0.0048974957 -0.014898456 0.045000054
0.0050211321 -0.014987984 0.045000054
0.014954695 -0.015018719 0.045000054
0.024930809 -0.015214296 0.04500005
0.034804665 -0.014697989 0.045000054
0.043923758 -0.014911131 0.043638565
-0.043849565 -0.0054112542 0.043704111
-0.035107385 -0.0051577785 0.04500005
-0.025500573 -0.0051817233 0.045000054
-0.015091494 -0.0051836399 0.045000058
-0.0050506885 -0.0046877735 0.04500005
0.0049578925 -0.0049238298 0.045000054
0.015059562 -0.0049492354 0.045000054
0.025055999 -0.0049697845 0.045000054
0.034869887 -0.005006976 0.04500005
0.043681551 -0.0046592713 0.043759286
-0.043633457 0.0050794929 0.043639794
-0.034907505 0.0051664026 0.045000054
-0.024766825 0.004796735 0.045000054
-0.015491019 0.0052976846 0.04500005
-0.0049965172 0.0051134774 0.045000054
0.0042925579 0.0048693633 0.045000054
0.014811706 0.0050190138 0.045000054
0.025413986 0.0049869698 0.045000054
0.035104092 0.004863237 0.045000058
0.043601263 0.0052121114 0.043746971
-0.043981161 0.014813959 0.043629725
-0.035337608 0.014921655 0.045000054
-0.024779476 0.0151481 0.045000054
-0.014764013 0.014974263 0.04500005
-0.004881057 0.014684792 0.045000054
0.0048529296 0.014747877 0.04500005
0.014912192 0.015252381 0.04500005
0.025145913 0.014813401 0.04500005
0.034887094 0.015045067 0.045000054
0.043725096 0.015074488 0.043743402
-0.043975595 0.025180178 0.043551661
-0.034984831 0.025060968 0.045000054
-0.025108973 0.025079798 0.045000054
-0.0151796 0.024456482 0.045000054
-0.0049201222 0.025013164 0.045000054
0.0050558061 0.025453789 0.04500005
0.015277818 0.025007553 0.045000054
0.024771091 0.024989797 0.045000054
0.034825142 0.024835568 0.045000054
0.043721713 0.024822475 0.043797746
-0.04366501 0.034897763 0.04387024
-0.034974404 0.034988016 0.04500005
-0.025154306 0.034794312 0.04500005
-0.015070348 0.034972996 0.045000054
-0.0049210424 0.035151325 0.04500005
0.005112106 0.035328183 0.04500005
0.014875107 0.034785558 0.04500005
0.02478588 0.035388086 0.045000054
0.035123773 0.035011955 0.045000054
0.043845817 0.035226502 0.04373816
-0.043431014 0.043292381 0.043445837
-0.035417348 0.043875083 0.043627407
-0.024901049 0.043775111 0.043595467
-0.014895511 0.04381188 0.043757785
-0.0047108564 0.04387974 0.043741964
0.0051410799 0.043751642 0.043592457
0.014855362 0.04369789 0.043733113
0.02531565 0.043885939 0.043729257
0.034899887 0.043640688 0.043772496
0.043355744 0.04308689 0.043059096
