# .PCD v0.7 - Point Cloud Data file format
VERSION 0.7
FIELDS x y z
SIZE 4 4 4
TYPE F F F
COUNT 1 1 1
WIDTH 1240
HEIGHT 1
VIEWPOINT 0 0 0 1 0 0 0
POINTS 1240
DATA ascii
0.040444989 -0.040359918 -0.045000002
0.041248418 -0.040271647 -0.045000002
0.04233725 -0.040123906 -0.045000002
0.044251833 -0.040737908 -0.045000002
0.045000002 -0.040560007 -0.044652056
-0.044488665 -0.039447188 -0.045000002
-0.043640185 -0.039294664 -0.045000002
-0.041516371 -0.039731018 -0.045000002
-0.040779546 -0.039655745 -0.045000002
-0.039515305 -0.039242279 -0.045000002
-0.038448449 -0.039459109 -0.045000002
-0.037144721 -0.039342374 -0.045000002
-0.036582131 -0.039103881 -0.045000002
-0.035420272 -0.039624881 -0.045000002
-0.03433942 -0.039583735 -0.045000002
-0.033448033 -0.039675511 -0.045000002
-0.031358894 -0.039007131 -0.044999998
-0.030282343 -0.039591078 -0.045000002
-0.029527113 -0.039256111 -0.045000002
-0.028486688 -0.039572947 -0.045000002
-0.027424332 -0.039584335 -0.045000002
-0.026963484 -0.039910328 -0.045000002
-0.024538258 -0.039392188 -0.045000002
-0.023336852 -0.039563496 -0.045000002
-0.022515947 -0.039473079 -0.045000002
-0.021797383 -0.039487507 -0.045000002
-0.020183261 -0.039446849 -0.045000002
-0.018298075 -0.039123774 -0.045000002
-0.016240444 -0.039169326 -0.045000002
-0.01509512 -0.039271906 -0.045000002
-0.014771935 -0.03942503 -0.045000002
-0.013295777 -0.039169326 -0.045000002
-0.012784486 -0.039920155 -0.045000002
-0.011409198 -0.039698314 -0.045000002
-0.010245778 -0.039664097 -0.045000002
-0.0092736613 -0.039557092 -0.045000002
-0.0084573822 -0.039446656 -0.045000002
-0.0072170109 -0.039652456 -0.045000002
-0.0067185094 -0.039715808 -0.045000002
-0.0052264323 -0.039415129 -0.045000002
-0.0048912577 -0.039920978 -0.045000002
-0.003702939 -0.039515018 -0.045000002
-0.0024502017 -0.039411452 -0.045000002
-0.0013603158 -0.03909564 -0.045000002
-0.00043048649 -0.03949007 -0.045000002
0.00025742128 -0.03955844 -0.045000002
0.0015810411 -0.039647065 -0.045000002
0.0036335506 -0.039268807 -0.045000002
0.0041426644 -0.039439991 -0.045000002
0.0054116081 -0.039915353 -0.045000002
0.0064739725 -0.039740346 -0.045000002
0.0074795485 -0.039424565 -0.045000002
0.0083662802 -0.039470173 -0.045000002
0.009682307 -0.039560415 -0.045000002
0.010839433 -0.039513942 -0.045000002
0.0122385 -0.039102696 -0.045000002
0.013570493 -0.039395127 -0.045000002
0.014420272 -0.039357755 -0.045000002
0.015458893 -0.039901432 -0.045000002
0.016709318 -0.039446417 -0.045000002
0.017552631 -0.03951183 -0.045000002
0.018469764 -0.039585151 -0.045000002
0.019713983 -0.039722897 -0.045000002
0.02034702 -0.039592694 -0.045000002
0.021144386 -0.039940126 -0.045000002
0.022807386 -0.039566495 -0.045000002
0.023312751 -0.039378643 -0.045000002
0.024611115 -0.039573953 -0.045000002
0.025429189 -0.039534837 -0.045000002
0.026163951 -0.039269149 -0.044999998
0.027489765 -0.039604977 -0.045000002
0.028364593 -0.039508741 -0.045000002
0.029991457 -0.039708704 -0.045000002
0.030824024 -0.039985847 -0.045000002
0.031475306 -0.039418697 -0.045000002
0.032233272 -0.039582599 -0.045000002
0.033154853 -0.039309941 -0.045000002
0.034789063 -0.039345752 -0.045000002
0.035747137 -0.039511885 -0.045000002
0.036635764 -0.039642937 -0.045000002
0.037416991 -0.039229579 -0.045000002
0.038376473 -0.039452665 -0.045000002
0.040938467 -0.039888337 -0.045000002
0.041408844 -0.039434519 -0.045000002
0.042950187 -0.039145876 -0.045000002
0.043481398 -0.039413877 -0.045000002
0.044766214 -0.039755903 -0.045000002
0.045000002 -0.039549246 -0.044300586
-0.041589506 -0.038461976 -0.045000002
-0.040704511 -0.038394753 -0.045000002
-0.038610354 -0.038202599 -0.045000002
-0.037373714 -0.038162701 -0.045000002
-0.03645958 -0.038858216 -0.045000002
-0.035583992 -0.038495328 -0.045000002
-0.033848207 -0.038397674 -0.045000002
-0.032262009 -0.03851128 -0.045000002
-0.03150811 -0.038541447 -0.045000002
-0.030581646 -0.038915895 -0.045000002
-0.029400069 -0.038411591 -0.045000002
-0.028391264 -0.038874149 -0.045000002
-0.026325591 -0.038255014 -0.045000002
-0.024419764 -0.038247142 -0.045000002
-0.023556814 -0.038656011 -0.045000002
-0.021979837 -0.038762636 -0.045000002
-0.020508008 -0.038385306 -0.045000002
-0.019300295 -0.038499091 -0.045000002
-0.018711589 -0.038406152 -0.045000002
-0.017115127 -0.038269363 -0.045000002
-0.016595624 -0.038475152 -0.045000002
-0.015700862 -0.038822144 -0.045000002
-0.014445076 -0.038741633 -0.045000002
-0.013515662 -0.038164511 -0.045000002
-0.012881156 -0.038286462 -0.045000002
-0.011712647 -0.038488749 -0.045000002
-0.010414666 -0.03899885 -0.045000002
-0.0096319458 -0.038834773 -0.045000002
-0.0086262142 -0.038618058 -0.045000002
-0.0072353864 -0.038520724 -0.045000002
-0.0065126587 -0.038402628 -0.045000002
-0.0046859439 -0.03840426 -0.045000002
-0.0033573098 -0.038648225 -0.045000002
-0.0024188701 -0.038000748 -0.045000002
-0.0012524016 -0.038396414 -0.045000002
-0.0003138734 -0.038681757 -0.045000002
0.0001792945 -0.038496505 -0.045000002
0.0013554394 -0.038502343 -0.045000002
0.0026285341 -0.038419627 -0.045000002
0.0033501755 -0.038623057 -0.045000002
0.0045098905 -0.038063131 -0.045000002
0.0054486007 -0.03862609 -0.045000002
0.0068171397 -0.038990431 -0.045000002
0.0075325645 -0.038509052 -0.045000002
0.0081576146 -0.038563192 -0.045000002
0.01069037 -0.038225975 -0.045000002
0.012073712 -0.03825368 -0.045000002
0.013012183 -0.038764592 -0.045000002
0.014162682 -0.038594551 -0.045000002
0.016957298 -0.038920533 -0.045000002
0.017257765 -0.038836498 -0.045000002
0.018337866 -0.038367283 -0.045000002
0.019342722 -0.038487893 -0.045000002
0.020381346 -0.038055316 -0.045000002
0.021916484 -0.038441058 -0.045000002
0.022680622 -0.038497251 -0.045000002
0.02383554 -0.038448799 -0.045000002
0.02461578 -0.038744289 -0.045000002
0.025657505 -0.038259625 -0.045000002
0.026219003 -0.038334958 -0.045000002
0.027418029 -0.038179953 -0.045000002
0.028682522 -0.038562141 -0.045000002
0.029970229 -0.038327716 -0.045000002
0.030304838 -0.038472492 -0.045000002
0.031469237 -0.038671389 -0.045000002
0.03267673 -0.038018171 -0.045000002
0.033335816 -0.03832351 -0.045000002
0.034871742 -0.03854125 -0.045000002
0.035895742 -0.038522914 -0.045000002
0.036610987 -0.03845061 -0.045000002
0.039145771 -0.038084906 -0.045000002
0.041142039 -0.038598694 -0.045000002
0.042691633 -0.038360611 -0.045000002
0.044534225 -0.038444765 -0.045000002
0.045000002 -0.038647164 -0.044502594
-0.044721045 -0.037339956 -0.044654552
-0.043832421 -0.037564751 -0.045000002
-0.0421216 -0.037636906 -0.045000002
-0.04142376 -0.037225462 -0.045000002
-0.040601239 -0.037325874 -0.045000002
-0.039934002 -0.037661575 -0.045000002
-0.038611006 -0.037417691 -0.045000002
-0.037634887 -0.037083961 -0.045000002
-0.036678843 -0.037578851 -0.045000002
-0.035469469 -0.03751133 -0.045000002
-0.034417123 -0.037419684 -0.045000002
-0.033601385 -0.037512146 -0.045000002
-0.032704066 -0.037652034 -0.045000002
-0.031384539 -0.037455242 -0.045000002
-0.030509695 -0.037516624 -0.045000002
-0.029452309 -0.03704809 -0.045000002
-0.028617349 -0.037057001 -0.045000002
-0.026184898 -0.037759315 -0.045000002
-0.024725901 -0.03777929 -0.045000002
-0.02346655 -0.037917271 -0.045000002
-0.021700323 -0.037396703 -0.045000002
-0.020448031 -0.03793975 -0.045000002
-0.019365611 -0.037589714 -0.045000002
-0.018458428 -0.037333768 -0.045000002
-0.017392997 -0.037424773 -0.045000002
-0.016442917 -0.037545964 -0.045000002
-0.015047233 -0.037376579 -0.045000002
-0.014832769 -0.037853234 -0.045000002
-0.013620171 -0.037313104 -0.045000002
-0.012248952 -0.037698679 -0.045000002
-0.010590117 -0.037339952 -0.045000002
-0.0084847091 -0.037185859 -0.045000002
-0.0078749033 -0.037829064 -0.044999998
-0.0063490509 -0.037551511 -0.045000002
-0.0040446334 -0.037926529 -0.045000002
-0.0036869003 -0.037277631 -0.045000002
-0.0022366345 -0.037360281 -0.045000002
-0.00076142326 -0.03743282 -0.045000002
5.7026744e-05 -0.037391767 -0.045000002
0.0023302876 -0.037617538 -0.045000002
0.0031308264 -0.037614871 -0.045000002
0.0043322835 -0.037663661 -0.045000002
0.0053768647 -0.037626043 -0.045000002
0.0065601324 -0.037279591 -0.045000002
0.007843256 -0.037236653 -0.045000002
0.0094937487 -0.037507191 -0.045000002
0.010615358 -0.037528787 -0.045000002
0.011365242 -0.037566569 -0.045000002
0.012612129 -0.037364256 -0.045000002
0.01391449 -0.037363291 -0.045000002
0.014392822 -0.037497472 -0.045000002
0.015860982 -0.037609771 -0.045000002
0.016566068 -0.037538547 -0.045000002
0.017796287 -0.037384637 -0.045000002
0.018297657 -0.037263319 -0.045000002
0.019577049 -0.037423346 -0.045000002
0.020598959 -0.037357807 -0.045000002
0.022220217 -0.037332561 -0.045000002
0.024386669 -0.037451841 -0.045000002
0.025574757 -0.037579767 -0.045000002
0.026436996 -0.037054274 -0.045000002
0.027448779 -0.037593342 -0.045000002
0.028107723 -0.03789869 -0.045000002
0.02950496 -0.03718257 -0.045000002
0.030327527 -0.037289895 -0.045000002
0.032485183 -0.037543025 -0.045000002
0.033507291 -0.037249397 -0.045000002
0.034619428 -0.037450437 -0.045000002
0.035681013 -0.037568521 -0.045000002
0.03749425 -0.037363075 -0.045000002
0.038519446 -0.037529487 -0.045000002
0.039422508 -0.037455186 -0.045000002
0.040297884 -0.037607882 -0.045000002
0.04146181 -0.037376322 -0.045000002
0.042718023 -0.037356917 -0.045000002
0.043493949 -0.037067745 -0.045000002
0.044556793 -0.037103776 -0.045000002
-0.045000002 -0.036576632 -0.044929106
-0.04324954 -0.036525689 -0.045000002
-0.042310148 -0.036315463 -0.045000002
-0.041501369 -0.036317293 -0.045000002
-0.040290717 -0.036486384 -0.045000002
-0.039599791 -0.036219846 -0.045000002
-0.03845441 -0.036644861 -0.045000002
-0.037330508 -0.036458664 -0.045000002
-0.036338966 -0.036337879 -0.045000002
-0.035485163 -0.036325581 -0.045000002
-0.034404207 -0.036222626 -0.045000002
-0.033161439 -0.036419217 -0.045000002
-0.0329565 -0.036476891 -0.045000002
-0.031670198 -0.036659427 -0.045000002
-0.030252628 -0.036480878 -0.045000002
-0.029550731 -0.036487527 -0.045000002
-0.028719336 -0.036598541 -0.045000002
-0.027831972 -0.036684237 -0.045000002
-0.026900914 -0.036317427 -0.045000002
-0.025258115 -0.036416896 -0.045000002
-0.02478308 -0.036361925 -0.045000002
-0.023358628 -0.036946665 -0.045000002
-0.022227332 -0.036280822 -0.045000002
-0.021532493 -0.036588829 -0.045000002
-0.020606911 -0.036623269 -0.045000002
-0.019204678 -0.036645681 -0.045000002
-0.018301148 -0.03639856 -0.045000002
-0.017964218 -0.036356427 -0.045000002
-0.016438508 -0.036430955 -0.045000002
-0.014285346 -0.036615424 -0.045000002
-0.013062782 -0.036952209 -0.045000002
-0.012317381 -0.036607452 -0.045000002
-0.011688645 -0.036620278 -0.045000002
-0.010312282 -0.036559895 -0.045000002
-0.0095167682 -0.036450192 -0.045000002
-0.0087692607 -0.036376275 -0.045000002
-0.007295901 -0.036427997 -0.045000002
-0.0065190955 -0.036628675 -0.045000002
-0.0055971197 -0.036512781 -0.045000002
-0.0048824772 -0.036931291 -0.045000002
-0.0034432325 -0.036562901 -0.045000002
-0.002956029 -0.03690654 -0.045000002
-0.0014171517 -0.03656302 -0.045000002
-0.00045281911 -0.036509793 -0.045000002
0.00052026659 -0.03678339 -0.045000002
0.0014713766 -0.036581051 -0.045000002
0.0020530615 -0.036107987 -0.045000002
0.0037233538 -0.036659811 -0.045000002
0.0048588989 -0.03639162 -0.045000002
0.0053496272 -0.036283638 -0.045000002
0.0072944714 -0.036288448 -0.045000002
0.0086078821 -0.036464546 -0.045000002
0.0096148318 -0.036582515 -0.045000002
0.010683192 -0.036854655 -0.045000002
0.011611188 -0.036424182 -0.045000002
0.012362033 -0.036378458 -0.045000002
0.01348152 -0.036552344 -0.045000002
0.014867632 -0.036507264 -0.045000002
0.015667429 -0.036443122 -0.045000002
0.016754046 -0.036876459 -0.045000002
0.018377628 -0.036829717 -0.045000002
0.019131832 -0.036756363 -0.045000002
0.020600572 -0.036035389 -0.045000002
0.021582862 -0.036534749 -0.045000002
0.02258919 -0.036700882 -0.045000002
0.023154065 -0.036709499 -0.045000002
0.024412895 -0.036221988 -0.045000002
0.02512951 -0.036201466 -0.045000002
0.026592884 -0.03635522 -0.045000002
0.027911779 -0.036950249 -0.045000002
0.028422246 -0.036465663 -0.045000002
0.030476393 -0.036186323 -0.045000002
0.031559426 -0.03656156 -0.045000002
0.032466296 -0.036162995 -0.045000002
0.034686767 -0.036734227 -0.045000002
0.03564468 -0.036720548 -0.045000002
0.036384638 -0.036097184 -0.045000002
0.037509184 -0.03658659 -0.045000002
0.038542081 -0.036852848 -0.045000002
0.039726 -0.036545232 -0.045000002
0.040287841 -0.036257774 -0.045000002
0.041318715 -0.036477134 -0.045000002
0.042377561 -0.036636952 -0.045000002
0.044923306 -0.036502801 -0.045000002
0.045000002 -0.036854506 -0.044637322
-0.044521585 -0.035413433 -0.044952575
-0.043246225 -0.035652652 -0.045000002
-0.042478554 -0.035551712 -0.045000002
-0.041298471 -0.035485759 -0.045000002
-0.04036735 -0.035296187 -0.045000002
-0.039173778 -0.035612565 -0.045000002
-0.038257398 -0.035714336 -0.045000002
-0.03765896 -0.035291716 -0.045000002
-0.034823045 -0.035378367 -0.045000002
-0.033837028 -0.035763998 -0.045000002
-0.031358764 -0.035226226 -0.045000002
-0.030489186 -0.035644911 -0.045000002
-0.029451506 -0.035566688 -0.045000002
-0.02844435 -0.035100833 -0.045000002
-0.02765744 -0.035617173 -0.045000002
-0.026723122 -0.035383966 -0.045000002
-0.025747545 -0.035647422 -0.045000002
-0.024387538 -0.035890535 -0.045000002
-0.02309929 -0.035026222 -0.045000002
-0.02224547 -0.035178062 -0.045000002
-0.021333791 -0.035056941 -0.045000002
-0.020322535 -0.03518872 -0.045000002
-0.019347999 -0.035498701 -0.045000002
-0.018605072 -0.035428688 -0.045000002
-0.017622447 -0.035729755 -0.045000002
-0.016527403 -0.03518251 -0.045000002
-0.015608167 -0.035018474 -0.045000002
-0.014499237 -0.035463937 -0.045000002
-0.013649832 -0.035662003 -0.045000002
-0.012435629 -0.035371754 -0.045000002
-0.011149068 -0.035490643 -0.045000002
-0.010395782 -0.035403095 -0.045000002
-0.0096334042 -0.035544369 -0.045000002
-0.0062679918 -0.035896383 -0.045000002
-0.0035908995 -0.035759449 -0.045000002
-0.0029753875 -0.035088986 -0.045000002
-0.0011443086 -0.035378635 -0.045000002
-0.00050856546 -0.035474695 -0.045000002
0.00058652461 -0.035768487 -0.045000002
0.0015255958 -0.035263997 -0.045000002
0.0026981409 -0.035671052 -0.045000002
0.00310509 -0.035711415 -0.045000002
0.0040692524 -0.035453759 -0.045000002
0.0054991459 -0.035489611 -0.045000002
0.0063209822 -0.035222691 -0.045000002
0.0072745527 -0.035570327 -0.045000002
0.0082719475 -0.035888903 -0.045000002
0.0093367379 -0.035247263 -0.045000002
0.010245824 -0.035423927 -0.045000002
0.011870101 -0.035667222 -0.045000002
0.012881527 -0.03557194 -0.045000002
0.013230383 -0.035709921 -0.045000002
0.014179995 -0.035522692 -0.045000002
0.015760766 -0.035450093 -0.045000002
0.01653567 -0.035550553 -0.045000002
0.017837275 -0.035379104 -0.045000002
0.019437373 -0.035375878 -0.045000002
0.020251585 -0.035709161 -0.045000002
0.021302935 -0.035464976 -0.045000002
0.022414271 -0.035326358 -0.045000002
0.024891237 -0.035897903 -0.045000002
0.02542332 -0.035715211 -0.045000002
0.026831957 -0.035502732 -0.045000002
0.027106632 -0.035760339 -0.045000002
0.028309856 -0.035527434 -0.045000002
0.029960198 -0.035790071 -0.045000002
0.030610859 -0.035648517 -0.045000002
0.031543374 -0.03557485 -0.045000002
0.032417461 -0.035044618 -0.045000002
0.033688474 -0.035047974 -0.045000002
0.035651628 -0.035597585 -0.045000002
0.037603732 -0.035429608 -0.045000002
0.039457865 -0.035584792 -0.045000002
0.041503336 -0.035375666 -0.045000002
0.042982247 -0.035908196 -0.045000002
0.044285476 -0.035349034 -0.045000002
0.045000002 -0.035849221 -0.044094034
-0.044785004 -0.034521837 -0.044804797
-0.043323286 -0.034805343 -0.045000002
-0.042311903 -0.034616064 -0.045000002
-0.041471984 -0.034182254 -0.045000002
-0.040582653 -0.034507029 -0.045000002
-0.039618365 -0.034456864 -0.045000002
-0.038310789 -0.034438334 -0.045000002
-0.037325144 -0.034557797 -0.045000002
-0.035603367 -0.03405606 -0.045000002
-0.034396786 -0.034528781 -0.045000002
-0.033819523 -0.034160186 -0.044999998
-0.032704018 -0.034376644 -0.045000002
-0.031495102 -0.034469787 -0.045000002
-0.030137351 -0.034955263 -0.045000002
-0.02940267 -0.034425717 -0.045000002
-0.028251125 -0.034086514 -0.045000002
-0.027543431 -0.034572594 -0.045000002
-0.026496116 -0.034102399 -0.045000002
-0.024661694 -0.034674454 -0.045000002
-0.023751497 -0.034340773 -0.045000002
-0.022245768 -0.034529977 -0.045000002
-0.021382533 -0.034686226 -0.045000002
-0.020487513 -0.034575686 -0.045000002
-0.019235928 -0.034660436 -0.045000002
-0.018670911 -0.034160294 -0.045000002
-0.016695555 -0.034560606 -0.045000002
-0.014420308 -0.034502201 -0.045000002
-0.013499185 -0.034241632 -0.045000002
-0.012166793 -0.03487004 -0.045000002
-0.011685192 -0.03418377 -0.045000002
-0.010574122 -0.034599368 -0.045000002
-0.009575869 -0.034362908 -0.045000002
-0.0088285683 -0.034309283 -0.045000002
-0.0075254543 -0.034044996 -0.045000002
-0.0064021945 -0.034634173 -0.045000002
-0.0055295439 -0.034419518 -0.045000002
-0.0047909738 -0.03422334 -0.045000002
-0.0033324151 -0.034468003 -0.045000002
-0.0013294356 -0.034542356 -0.045000002
-2.2538006e-06 -0.034762301 -0.045000002
0.00068655238 -0.034527216 -0.045000002
0.001694438 -0.034275938 -0.045000002
0.0026399083 -0.034179442 -0.045000002
0.0033607231 -0.034568377 -0.045000002
0.0044660075 -0.034568317 -0.045000002
0.0053662006 -0.034627169 -0.045000002
0.0069147078 -0.034753319 -0.045000002
0.007799577 -0.034663714 -0.045000002
0.0084945969 -0.034253336 -0.045000002
0.0095079839 -0.03437354 -0.045000002
0.010590843 -0.034665115 -0.045000002
0.012526605 -0.034516111 -0.045000002
0.013364386 -0.034428231 -0.045000002
0.015508236 -0.034545228 -0.045000002
0.016608693 -0.034429491 -0.045000002
0.017168039 -0.034424417 -0.045000002
0.019736197 -0.034316525 -0.045000002
0.020805726 -0.034717105 -0.045000002
0.022244485 -0.034295734 -0.045000002
0.024467099 -0.034909312 -0.045000002
0.026472243 -0.034369703 -0.045000002
0.028857458 -0.03428318 -0.045000002
0.029632492 -0.034855854 -0.045000002
0.030276097 -0.034980416 -0.045000002
0.031768695 -0.03407184 -0.045000002
0.032337513 -0.034764443 -0.045000002
0.03443183 -0.034520134 -0.045000002
0.035445202 -0.034645159 -0.045000002
0.036901802 -0.034996346 -0.045000002
0.038471311 -0.034449544 -0.045000002
0.040086117 -0.034428637 -0.045000002
0.041407548 -0.034485459 -0.045000002
0.042388331 -0.034504589 -0.045000002
0.045000002 -0.03454829 -0.044471335
-0.045000006 -0.033556603 -0.044144064
-0.045000002 -0.033421081 -0.0445856
-0.043367933 -0.033567607 -0.045000002
-0.041363019 -0.033429895 -0.045000002
-0.04006473 -0.033469848 -0.045000002
-0.038596574 -0.033435989 -0.045000002
-0.037945379 -0.033056643 -0.045000002
-0.036512703 -0.033254717 -0.045000002
-0.035471369 -0.033456508 -0.045000002
-0.034574352 -0.033503018 -0.045000002
-0.033215262 -0.033809453 -0.045000002
-0.03232722 -0.03389667 -0.045000002
-0.031157196 -0.033435412 -0.045000002
-0.03051044 -0.03304106 -0.045000002
-0.02902706 -0.033657178 -0.045000002
-0.028451659 -0.033350483 -0.045000002
-0.027562179 -0.033312306 -0.045000002
-0.026893387 -0.033479974 -0.045000002
-0.025508102 -0.033601008 -0.045000002
-0.02436221 -0.033498902 -0.045000002
-0.023470843 -0.03356947 -0.045000002
-0.022718795 -0.033705924 -0.045000002
-0.021486102 -0.033206999 -0.045000002
-0.020387908 -0.03356763 -0.045000002
-0.019752054 -0.033775803 -0.045000002
-0.018677719 -0.033520672 -0.045000002
-0.017552722 -0.033023693 -0.045000002
-0.016606735 -0.033655152 -0.045000002
-0.015125618 -0.033404745 -0.045000002
-0.014985575 -0.033184208 -0.045000002
-0.01327713 -0.033541702 -0.045000002
-0.011354399 -0.033234864 -0.045000002
-0.010627413 -0.033498153 -0.045000002
-0.0098735876 -0.03321407 -0.045000002
-0.0081973756 -0.033556379 -0.045000002
-0.0066449456 -0.033477325 -0.045000002
-0.0055901757 -0.033625573 -0.045000002
-0.0045656012 -0.033579584 -0.045000002
-0.0032522599 -0.033812899 -0.045000002
-0.0023295004 -0.033275425 -0.045000002
-0.0018610265 -0.033614062 -0.045000002
-0.00085143093 -0.033333257 -0.045000002
0.00077702105 -0.033256918 -0.045000002
0.0014922423 -0.033314742 -0.045000002
0.0022794884 -0.033673856 -0.045000002
0.0035421029 -0.033175908 -0.045000002
0.0040507186 -0.033688203 -0.045000002
0.0058363797 -0.033463139 -0.045000002
0.0060955426 -0.033035807 -0.045000002
0.0078106574 -0.03368156 -0.045000002
0.0087073594 -0.033663861 -0.045000002
0.0095082112 -0.033385124 -0.045000002
0.010484507 -0.033425264 -0.045000002
0.011834679 -0.033085559 -0.045000002
0.012389058 -0.033354148 -0.045000002
0.013713434 -0.033536084 -0.045000002
0.014629841 -0.033696011 -0.045000002
0.015522073 -0.033344127 -0.045000002
0.016544251 -0.03338841 -0.045000002
0.017835235 -0.033539895 -0.045000002
0.018479371 -0.033317041 -0.045000002
0.020375533 -0.033740774 -0.045000002
0.021588918 -0.033740614 -0.045000002
0.022354128 -0.033535123 -0.045000002
0.023384087 -0.033542123 -0.045000002
0.024576554 -0.033275377 -0.045000002
0.026694454 -0.033909447 -0.045000002
0.02770004 -0.033613633 -0.045000002
0.028441805 -0.033756737 -0.045000002
0.029403726 -0.033209879 -0.045000002
0.030738363 -0.033792995 -0.045000002
0.03141135 -0.033679985 -0.045000002
0.032052744 -0.033566024 -0.045000002
0.033377368 -0.033550054 -0.045000002
0.034769841 -0.033495404 -0.045000002
0.035657916 -0.033417132 -0.045000002
0.036510933 -0.033504948 -0.045000002
0.037602235 -0.033617925 -0.045000002
0.038944032 -0.033380967 -0.045000002
0.039396506 -0.033376634 -0.045000002
0.040130351 -0.033093352 -0.045000002
0.041488957 -0.033572618 -0.045000002
0.042056143 -0.033109009 -0.045000002
0.044358913 -0.033349581 -0.045000002
0.045000002 -0.033785671 -0.04430791
-0.044669643 -0.032700948 -0.044824012
-0.043588452 -0.032391638 -0.045000002
-0.042570464 -0.032488376 -0.045000002
-0.041492168 -0.032466855 -0.045000002
-0.038309447 -0.032392882 -0.045000002
-0.03758993 -0.032303825 -0.045000002
-0.036499389 -0.03255605 -0.045000002
-0.035394836 -0.032226872 -0.045000002
-0.034666326 -0.032460172 -0.045000002
-0.033201836 -0.032335721 -0.045000002
-0.032596625 -0.032248039 -0.045000002
-0.031447046 -0.032577183 -0.045000002
-0.029541735 -0.032531619 -0.045000002
-0.028383272 -0.032851707 -0.044999998
-0.027261039 -0.032363866 -0.045000002
-0.026564972 -0.03251956 -0.045000002
-0.025561536 -0.032331318 -0.045000002
-0.024755288 -0.032845467 -0.045000002
-0.023151178 -0.032804489 -0.045000002
-0.022372618 -0.032527264 -0.045000002
-0.021751309 -0.032420389 -0.045000002
-0.020355739 -0.032102719 -0.045000002
-0.01960526 -0.032034464 -0.045000002
-0.018657576 -0.032379474 -0.045000002
-0.017777231 -0.032441057 -0.045000002
-0.016516007 -0.032633591 -0.045000002
-0.015089281 -0.032045364 -0.045000002
-0.014394176 -0.032534767 -0.045000002
-0.012427663 -0.03291627 -0.045000002
-0.011907216 -0.032057419 -0.045000002
-0.010858971 -0.03271829 -0.045000002
-0.0097039063 -0.032790903 -0.045000002
-0.0085348422 -0.03267746 -0.045000002
-0.0071732951 -0.032155674 -0.045000002
-0.0065347813 -0.032725587 -0.045000002
-0.0058195489 -0.032117613 -0.045000002
-0.0047260253 -0.032246977 -0.045000002
-0.0012722913 -0.032736935 -0.045000002
-0.00049354136 -0.032541912 -0.045000002
0.00043192459 -0.032419417 -0.045000002
0.0016507516 -0.032692559 -0.045000002
0.002526992 -0.032586981 -0.045000002
0.0032563654 -0.032367226 -0.045000002
0.0044310032 -0.032381054 -0.045000002
0.0054667317 -0.032749787 -0.045000002
0.0064724279 -0.032820649 -0.045000002
0.0075251907 -0.032542389 -0.045000002
0.010531401 -0.032704085 -0.045000002
0.011541723 -0.032774396 -0.045000002
0.013340378 -0.032289959 -0.045000002
0.014027582 -0.032229215 -0.045000002
0.015779555 -0.032770302 -0.045000002
0.016982557 -0.032292485 -0.045000002
0.017471764 -0.032199681 -0.045000002
0.019467488 -0.032509696 -0.045000002
0.02076745 -0.03256749 -0.045000002
0.022166703 -0.03240478 -0.045000002
0.023317279 -0.032413512 -0.045000002
0.024627656 -0.032387666 -0.045000002
0.02640455 -0.032502651 -0.045000002
0.027571153 -0.032998584 -0.045000002
0.028530709 -0.032389406 -0.045000002
0.029685298 -0.03251354 -0.045000002
0.03013383 -0.03255713 -0.045000002
0.031364735 -0.032630041 -0.045000002
0.032013699 -0.032579571 -0.045000002
0.033589855 -0.032605901 -0.045000002
0.035416596 -0.032804243 -0.045000002
0.036369629 -0.032570641 -0.045000002
0.037670728 -0.032605451 -0.045000002
0.038141958 -0.032141566 -0.045000002
0.041464224 -0.032134622 -0.045000002
0.042575996 -0.032451175 -0.045000002
0.043783009 -0.032660946 -0.045000002
0.044515193 -0.032518368 -0.045000002
0.045000002 -0.032375455 -0.044591241
-0.044415392 -0.031550605 -0.04482206
-0.043287832 -0.031440232 -0.045000002
-0.042048767 -0.031814016 -0.045000002
-0.041332223 -0.031556156 -0.044999998
-0.040780474 -0.031460855 -0.045000002
-0.039473705 -0.031260725 -0.045000002
-0.038122401 -0.031700775 -0.045000002
-0.037480894 -0.031469498 -0.045000002
-0.036322653 -0.031507529 -0.045000002
-0.034233645 -0.031567868 -0.045000002
-0.03350091 -0.031596575 -0.045000002
-0.031375624 -0.031590555 -0.045000002
-0.029399881 -0.031786721 -0.045000002
-0.028651506 -0.031220596 -0.045000002
-0.027540192 -0.031526502 -0.044999998
-0.026404642 -0.031439573 -0.045000002
-0.025335306 -0.031442486 -0.045000002
-0.024340369 -0.031318948 -0.045000002
-0.023167508 -0.031374793 -0.045000002
-0.022763971 -0.031622648 -0.045000002
-0.02145645 -0.031005707 -0.045000002
-0.020464092 -0.031645209 -0.045000002
-0.019483162 -0.031654354 -0.045000002
-0.018237578 -0.031528752 -0.045000002
-0.017677233 -0.031534798 -0.045000002
-0.01670764 -0.031657968 -0.045000002
-0.015733112 -0.031316448 -0.045000002
-0.014404213 -0.031504262 -0.045000002
-0.01242318 -0.031720735 -0.045000002
-0.011708065 -0.031505655 -0.045000002
-0.010450665 -0.031223716 -0.045000002
-0.0088232774 -0.031741522 -0.045000002
-0.0077377893 -0.031498492 -0.045000002
-0.0063455794 -0.031619105 -0.045000002
-0.0053020865 -0.031764004 -0.045000002
-0.0041278787 -0.031793009 -0.045000002
-0.0033557918 -0.031168139 -0.045000002
-0.0024119485 -0.031526849 -0.045000002
-0.0017366717 -0.031106332 -0.045000002
-0.00092702545 -0.031608451 -0.045000002
0.0018134918 -0.031547189 -0.045000002
0.0026760716 -0.031462327 -0.045000002
0.0034507602 -0.031143421 -0.045000002
0.0042314781 -0.031092647 -0.045000002
0.0054620728 -0.031227449 -0.045000002
0.00742083 -0.031591684 -0.045000002
0.0083690165 -0.031438049 -0.045000002
0.0097149173 -0.031214654 -0.045000002
0.010353497 -0.031818215 -0.045000002
0.011914045 -0.031376768 -0.045000002
0.012569414 -0.031645291 -0.045000002
0.013239603 -0.031587347 -0.045000002
0.014062673 -0.031330138 -0.045000002
0.01565682 -0.031522177 -0.045000002
0.016902866 -0.031799842 -0.045000002
0.017107623 -0.031455494 -0.045000002
0.018688962 -0.031515595 -0.045000002
0.019724883 -0.031699214 -0.045000002
0.020685621 -0.031480141 -0.045000002
0.022505326 -0.031582732 -0.045000002
0.02371362 -0.031087676 -0.045000002
0.026645707 -0.031481955 -0.045000002
0.027317453 -0.031718459 -0.045000002
0.028038481 -0.031944394 -0.045000002
0.029434172 -0.031406447 -0.045000002
0.030332368 -0.031475388 -0.045000002
0.03224225 -0.031540636 -0.045000002
0.034569345 -0.031463586 -0.045000002
0.035469767 -0.031465571 -0.045000002
0.036488906 -0.031931687 -0.045000002
0.037092015 -0.031092338 -0.045000002
0.038655676 -0.031491727 -0.045000002
0.03948316 -0.031736553 -0.045000002
0.040544104 -0.031531986 -0.045000002
0.041361809 -0.031596646 -0.045000002
0.042714149 -0.031772945 -0.045000002
0.044497665 -0.031419989 -0.045000002
-0.044656038 -0.030610681 -0.044895481
-0.043244228 -0.030483913 -0.045000002
-0.042917442 -0.03007983 -0.045000002
-0.040447611 -0.030213416 -0.045000002
-0.039155886 -0.030011805 -0.045000002
-0.038393922 -0.03042936 -0.045000002
-0.037509769 -0.030390933 -0.045000002
-0.035489585 -0.030410379 -0.045000002
-0.034427218 -0.030571001 -0.045000002
-0.033739951 -0.030388413 -0.045000002
-0.032578878 -0.030775376 -0.045000002
-0.031349249 -0.030754548 -0.045000002
-0.030912435 -0.030597443 -0.045000002
-0.029415285 -0.03049349 -0.045000002
-0.027575511 -0.030190337 -0.045000002
-0.026609711 -0.030487819 -0.045000002
-0.025436973 -0.030435992 -0.045000002
-0.024546087 -0.030948881 -0.045000002
-0.023306252 -0.03040844 -0.045000002
-0.022433912 -0.030374765 -0.045000002
-0.021109983 -0.030693669 -0.045000002
-0.020234676 -0.030578788 -0.045000002
-0.019394323 -0.03055683 -0.045000002
-0.018380877 -0.03030334 -0.045000002
-0.017294656 -0.03061847 -0.045000002
-0.016657356 -0.030394603 -0.045000002
-0.015813582 -0.030536612 -0.045000002
-0.013666575 -0.030550536 -0.045000002
-0.0094949054 -0.030454502 -0.045000002
-0.0076785958 -0.030362062 -0.045000002
-0.0066615515 -0.030286798 -0.045000002
-0.0049725389 -0.030424058 -0.045000002
-0.0038246042 -0.030569479 -0.045000002
-0.0020620972 -0.030696787 -0.045000002
-0.0016588899 -0.030264914 -0.045000002
-0.00033897441 -0.030722024 -0.045000002
0.00026617106 -0.030392863 -0.045000002
0.0026632764 -0.030642493 -0.045000002
0.00322951 -0.030182872 -0.045000002
0.0041783098 -0.030708723 -0.045000002
0.005425734 -0.030489797 -0.045000002
0.0068582334 -0.030635528 -0.045000002
0.007767221 -0.030477153 -0.045000002
0.0083417147 -0.03071969 -0.045000002
0.0090028839 -0.030656058 -0.045000002
0.01130638 -0.030581523 -0.045000002
0.012086879 -0.030526925 -0.045000002
0.013134502 -0.030341957 -0.045000002
0.014585184 -0.030124372 -0.045000002
0.015516458 -0.030115118 -0.045000002
0.016534638 -0.030628566 -0.045000002
0.017541667 -0.030379618 -0.045000002
0.018150598 -0.030947369 -0.045000002
0.019545957 -0.030415878 -0.045000002
0.020467483 -0.030537855 -0.045000002
0.021635806 -0.030434646 -0.045000002
0.022558821 -0.030399181 -0.045000002
0.02352218 -0.030228276 -0.045000002
0.024768179 -0.030623678 -0.045000002
0.025516348 -0.030659059 -0.045000002
0.026872456 -0.030304942 -0.045000002
0.027577961 -0.030372977 -0.045000002
0.028484669 -0.030447328 -0.045000002
0.029417399 -0.030492285 -0.045000002
0.030723341 -0.030242641 -0.045000002
0.031896688 -0.030287143 -0.045000002
0.033433225 -0.030239759 -0.045000002
0.034512788 -0.030598715 -0.045000002
0.035449892 -0.030766318 -0.045000002
0.036561914 -0.030852482 -0.045000002
0.038406219 -0.030494852 -0.044999998
0.040266443 -0.030275358 -0.045000002
0.042315215 -0.030389372 -0.045000002
0.043636587 -0.030696005 -0.045000002
0.044578481 -0.030412555 -0.045000002
0.045000002 -0.030457381 -0.044625074
-0.044968665 -0.029455453 -0.044393133
-0.043930355 -0.02981714 -0.045000002
-0.042406101 -0.029640105 -0.045000002
-0.041384526 -0.029410871 -0.045000002
-0.040552437 -0.029604461 -0.045000002
-0.039792065 -0.029202884 -0.045000002
-0.038837388 -0.029542133 -0.045000002
-0.037523109 -0.029430812 -0.045000002
-0.036841676 -0.029612679 -0.045000002
-0.035160057 -0.02936909 -0.045000002
-0.034704294 -0.029323999 -0.045000002
-0.033138663 -0.029658221 -0.045000002
-0.032655202 -0.029571705 -0.045000002
-0.031377789 -0.029657451 -0.045000002
-0.030019112 -0.029036634 -0.045000002
-0.02733125 -0.029263759 -0.045000002
-0.026116421 -0.029846232 -0.045000002
-0.02525463 -0.029402405 -0.045000002
-0.024594676 -0.029566165 -0.045000002
-0.023684468 -0.02966518 -0.044999998
-0.022512933 -0.029292366 -0.045000002
-0.021365887 -0.029351922 -0.045000002
-0.020027587 -0.029399497 -0.045000002
-0.019615846 -0.029819105 -0.045000002
-0.018361039 -0.029684631 -0.045000002
-0.017676365 -0.029603746 -0.045000002
-0.016659359 -0.029307926 -0.045000002
-0.015542856 -0.02948514 -0.045000002
-0.014433168 -0.029434562 -0.045000002
-0.013550958 -0.029584296 -0.045000002
-0.012003276 -0.029953111 -0.045000002
-0.011486517 -0.029313123 -0.045000002
-0.010734406 -0.029600725 -0.045000002
-0.0093291188 -0.029469738 -0.045000002
-0.0082980664 -0.029123066 -0.045000002
-0.007395613 -0.02950665 -0.044999998
-0.005464985 -0.029188491 -0.045000002
-0.0035763774 -0.029483357 -0.045000002
-0.0029267417 -0.02921465 -0.045000002
-0.00065080263 -0.029050613 -0.045000002
0.00020272222 -0.029654646 -0.045000002
0.0015660222 -0.029263098 -0.045000002
0.0026776367 -0.029408433 -0.045000002
0.0036206953 -0.02970092 -0.045000002
0.0048587844 -0.029165123 -0.045000002
0.0054312674 -0.029031932 -0.045000002
0.0066678538 -0.029580466 -0.045000002
0.007516379 -0.029269358 -0.045000002
0.0085362755 -0.029356118 -0.045000002
0.0092934817 -0.029732142 -0.045000002
0.011166868 -0.029611716 -0.045000002
0.01275951 -0.029358318 -0.045000002
0.014292501 -0.029304227 -0.045000002
0.016569251 -0.029438088 -0.045000002
0.01738351 -0.029680593 -0.045000002
0.018487209 -0.02951994 -0.045000002
0.019535201 -0.029168705 -0.045000002
0.02055027 -0.029443834 -0.045000002
0.021795806 -0.029463936 -0.045000002
0.022434376 -0.029372763 -0.045000002
0.023460085 -0.029466467 -0.045000002
0.024719466 -0.029542167 -0.045000002
0.025862556 -0.029421454 -0.045000002
0.026595462 -0.029349178 -0.045000002
0.027476279 -0.029443378 -0.045000002
0.028536666 -0.029362813 -0.045000002
0.029744288 -0.029664153 -0.045000002
0.030270567 -0.029318413 -0.045000002
0.032583769 -0.029346624 -0.045000002
0.033922248 -0.029188434 -0.045000002
0.034120433 -0.029016696 -0.045000002
0.035724163 -0.029366218 -0.045000002
0.036228597 -0.029901998 -0.045000002
0.038482931 -0.029520735 -0.045000002
0.041465983 -0.029675839 -0.045000002
0.043491248 -0.029374819 -0.045000002
0.045000002 -0.029705247 -0.044470128
-0.044942036 -0.028521374 -0.044840235
-0.043721724 -0.028578205 -0.045000002
-0.0426411 -0.028469305 -0.045000002
-0.041434083 -0.028438628 -0.045000002
-0.040449236 -0.028446095 -0.044999998
-0.039767608 -0.02834999 -0.045000002
-0.038038325 -0.028867861 -0.045000002
-0.037344933 -0.028510423 -0.045000002
-0.036481228 -0.02848221 -0.045000002
-0.035623975 -0.028422991 -0.045000002
-0.034600552 -0.028763676 -0.045000002
-0.033298802 -0.028306568 -0.045000002
-0.032427084 -0.02853217 -0.045000002
-0.031282015 -0.028337829 -0.045000002
-0.030804092 -0.028617652 -0.045000002
-0.029578988 -0.028550675 -0.045000002
-0.028568383 -0.028042044 -0.045000002
-0.027541963 -0.02863053 -0.045000002
-0.026349651 -0.028385259 -0.045000002
-0.025592789 -0.028492296 -0.045000002
-0.02436264 -0.028453898 -0.045000002
-0.023473367 -0.02870087 -0.045000002
-0.022656046 -0.028154805 -0.045000002
-0.021574982 -0.028219599 -0.045000002
-0.020931391 -0.028068313 -0.045000002
-0.01969165 -0.028596511 -0.045000002
-0.01769156 -0.028920358 -0.045000002
-0.016490957 -0.028542263 -0.045000002
-0.015372268 -0.028466156 -0.045000002
-0.014313203 -0.028270693 -0.045000002
-0.013400694 -0.028433403 -0.044999998
-0.012535099 -0.028077729 -0.045000002
-0.011522329 -0.028257355 -0.045000002
-0.010471434 -0.028523184 -0.045000002
-0.0099744378 -0.028371215 -0.045000002
-0.0082849711 -0.028144717 -0.045000002
-0.0074590221 -0.028483171 -0.045000002
-0.0063425936 -0.028324494 -0.045000002
-0.0055472599 -0.028643053 -0.045000002
-0.004795054 -0.028932592 -0.045000002
-0.0034128919 -0.028570648 -0.045000002
-0.0026164623 -0.028477024 -0.045000002
0.0004339513 -0.028615758 -0.045000002
0.0013149992 -0.028874883 -0.045000002
0.0025939615 -0.0283674 -0.045000002
0.00326799 -0.028485144 -0.045000002
0.0044874493 -0.028374253 -0.045000002
0.0054261838 -0.02848948 -0.045000002
0.0063291164 -0.028430749 -0.045000002
0.0074910335 -0.028380957 -0.045000002
0.0087415418 -0.028999597 -0.045000002
0.0098208738 -0.028672323 -0.045000002
0.010354231 -0.028490746 -0.045000002
0.011181577 -0.028787548 -0.045000002
0.012311032 -0.028917188 -0.045000002
0.013415906 -0.028517485 -0.045000002
0.014327203 -0.028475463 -0.045000002
0.015574652 -0.02876804 -0.045000002
0.016862217 -0.028652929 -0.045000002
0.017677402 -0.028362468 -0.045000002
0.018486731 -0.028445072 -0.045000002
0.019340044 -0.028951431 -0.045000002
0.02035493 -0.028441049 -0.045000002
0.021701692 -0.0284879 -0.045000002
0.022518672 -0.02848945 -0.045000002
0.023227721 -0.028272916 -0.045000002
0.024638444 -0.028960861 -0.045000002
0.025577139 -0.028307123 -0.045000002
0.026669217 -0.028893905 -0.045000002
0.027125746 -0.028111231 -0.045000002
0.030635819 -0.028228156 -0.045000002
0.031466644 -0.028277786 -0.045000002
0.032815263 -0.028644463 -0.045000002
0.033955175 -0.028446559 -0.045000002
0.034781519 -0.028018307 -0.045000002
0.035305265 -0.028750945 -0.045000002
0.036798816 -0.028121632 -0.045000002
0.037514538 -0.028487861 -0.045000002
0.038330469 -0.028231286 -0.045000002
0.039235596 -0.028318012 -0.045000002
0.040916596 -0.028043937 -0.045000002
0.041551415 -0.028718522 -0.045000002
0.042174753 -0.028552946 -0.045000002
0.043574631 -0.028553175 -0.045000002
0.044491351 -0.028884931 -0.045000002
0.045000002 -0.028376136 -0.044455677
-0.044675607 -0.027778551 -0.04480188
-0.043637175 -0.027196392 -0.045000002
-0.042404115 -0.027454887 -0.045000002
-0.041776061 -0.027653415 -0.045000002
-0.040552545 -0.027417904 -0.045000002
-0.039507311 -0.027680106 -0.045000002
-0.038368892 -0.027486449 -0.045000002
-0.037654348 -0.027872749 -0.045000002
-0.036765926 -0.027545862 -0.045000002
-0.035982192 -0.027490271 -0.045000002
-0.034515619 -0.027568568 -0.045000002
-0.033321444 -0.027499424 -0.045000002
-0.032799058 -0.027338266 -0.045000002
-0.031444248 -0.027363414 -0.045000002
-0.030810514 -0.02767338 -0.045000002
-0.029759301 -0.027422966 -0.045000002
-0.028665632 -0.02782074 -0.045000002
-0.026742702 -0.02735951 -0.045000002
-0.024348231 -0.027439307 -0.045000002
-0.023119714 -0.027914219 -0.045000002
-0.022419352 -0.027856383 -0.045000002
-0.021281414 -0.027480572 -0.045000002
-0.020589957 -0.027439265 -0.045000002
-0.019768134 -0.027752139 -0.045000002
-0.018163642 -0.0273891 -0.045000002
-0.017840775 -0.027031178 -0.045000002
-0.016635498 -0.027358249 -0.045000002
-0.015977442 -0.027411345 -0.045000002
-0.014359023 -0.0273328 -0.045000002
-0.013159471 -0.027321531 -0.045000002
-0.012375988 -0.027426807 -0.045000002
-0.011618048 -0.027491705 -0.045000002
-0.010411223 -0.027562266 -0.045000002
-0.0093508717 -0.027648533 -0.045000002
-0.0078804223 -0.027738683 -0.045000002
-0.0065853568 -0.027392939 -0.045000002
-0.0056800148 -0.027439052 -0.045000002
-0.0044619977 -0.027380405 -0.045000002
-0.0035158461 -0.027271137 -0.045000002
-0.002163494 -0.027017251 -0.045000002
-0.00063041784 -0.027405974 -0.045000002
0.00044095796 -0.027241789 -0.045000002
0.0014736778 -0.027880646 -0.045000002
0.0031878622 -0.027541798 -0.045000002
0.0041515185 -0.027265903 -0.045000002
0.0054895254 -0.027898345 -0.045000002
0.0067487666 -0.027592188 -0.045000002
0.0072138365 -0.02762909 -0.045000002
0.0083937179 -0.027261559 -0.045000002
0.0094772102 -0.027433177 -0.045000002
0.010733692 -0.02748532 -0.045000002
0.011142 -0.027977109 -0.045000002
0.012594211 -0.027908348 -0.045000002
0.01399298 -0.027949106 -0.045000002
0.014312807 -0.027452098 -0.045000002
0.016671328 -0.027613452 -0.045000002
0.017307654 -0.02705498 -0.045000002
0.018330412 -0.027274963 -0.045000002
0.020657457 -0.027757278 -0.045000002
0.021380905 -0.027357174 -0.045000002
0.022317633 -0.027523467 -0.045000002
0.0234339 -0.027373904 -0.045000002
0.024328792 -0.027792672 -0.045000002
0.025528068 -0.027311057 -0.045000002
0.026401412 -0.027493095 -0.045000002
0.02710476 -0.027412212 -0.045000002
0.028782278 -0.02779337 -0.045000002
0.029649222 -0.02751174 -0.045000002
0.030040042 -0.027892219 -0.045000002
0.032809235 -0.027783804 -0.045000002
0.033195585 -0.027941624 -0.045000002
0.034204908 -0.027816206 -0.045000002
0.035567138 -0.027415346 -0.045000002
0.03653726 -0.027528122 -0.045000002
0.037689328 -0.027194971 -0.045000002
0.038503397 -0.02742455 -0.045000002
0.039186951 -0.02769972 -0.045000002
0.040507659 -0.027857773 -0.045000002
0.042637795 -0.027342193 -0.045000002
0.04390642 -0.027558796 -0.045000002
0.044769224 -0.02753612 -0.045000002
0.045000002 -0.02768296 -0.044599041
-0.044538509 -0.02642427 -0.044870932
-0.043334562 -0.026192743 -0.045000002
-0.042549998 -0.02647637 -0.045000002
-0.041622449 -0.026264347 -0.045000002
-0.040227666 -0.026287278 -0.045000002
-0.039848555 -0.026821768 -0.045000002
-0.038477212 -0.026531426 -0.045000002
-0.037396181 -0.026282633 -0.045000002
-0.036250222 -0.026904937 -0.045000002
-0.035707142 -0.026641103 -0.045000002
-0.033318818 -0.026860323 -0.045000002
-0.032645993 -0.026710384 -0.045000002
-0.030595027 -0.026935618 -0.045000002
-0.029125132 -0.026601329 -0.045000002
-0.028302992 -0.026815193 -0.045000002
-0.027648676 -0.026543237 -0.045000002
-0.026515771 -0.026698809 -0.045000002
-0.025276341 -0.026476532 -0.045000002
-0.024667291 -0.026166888 -0.045000002
-0.023071179 -0.026871724 -0.044999998
-0.022726633 -0.026383128 -0.045000002
-0.021842185 -0.026405485 -0.045000002
-0.020295735 -0.026802551 -0.045000002
-0.019360319 -0.026062764 -0.045000002
-0.018277578 -0.026917115 -0.045000002
-0.017807346 -0.026673138 -0.045000002
-0.016692152 -0.026262263 -0.045000002
-0.015534185 -0.026456438 -0.045000002
-0.014596828 -0.026520168 -0.045000002
-0.013742359 -0.026264461 -0.045000002
-0.012243351 -0.026431112 -0.045000002
-0.011351698 -0.026658779 -0.045000002
-0.010144617 -0.02661675 -0.045000002
-0.0081733 -0.026286898 -0.045000002
-0.0077288337 -0.026843168 -0.045000002
-0.0056054378 -0.026492 -0.045000002
-0.0044451798 -0.026722725 -0.045000002
-0.0031941282 -0.026830699 -0.044999998
-0.0021304348 -0.026288614 -0.044999998
-0.0018441472 -0.026600385 -0.045000002
-0.00093918107 -0.026015164 -0.045000002
0.0016454706 -0.026374513 -0.045000002
0.0026563252 -0.026440177 -0.045000002
0.0035977666 -0.02630852 -0.045000002
0.0041980697 -0.026377078 -0.045000002
0.0054599964 -0.026293382 -0.045000002
0.0065727038 -0.02647182 -0.045000002
0.0074397717 -0.026685303 -0.045000002
0.0084727593 -0.026622903 -0.045000002
0.009563433 -0.026753565 -0.045000002
0.010292158 -0.026630394 -0.045000002
0.012251736 -0.026861705 -0.045000002
0.013408974 -0.026272478 -0.045000002
0.014823982 -0.026828771 -0.045000002
0.01555262 -0.026591374 -0.045000002
0.016381271 -0.026287992 -0.045000002
0.017205022 -0.026011445 -0.045000002
0.019803545 -0.02686427 -0.045000002
0.021644972 -0.02645494 -0.045000002
0.022011351 -0.02649916 -0.045000002
0.024465049 -0.026198911 -0.045000002
0.027654296 -0.026185581 -0.045000002
0.028530505 -0.026331004 -0.045000002
0.029681081 -0.026327645 -0.045000002
0.030113261 -0.026265588 -0.045000002
0.031525031 -0.026449244 -0.045000002
0.032775104 -0.026528556 -0.045000002
0.033953749 -0.02623054 -0.045000002
0.034280676 -0.026312038 -0.045000002
0.035337344 -0.026874207 -0.045000002
0.036492862 -0.026481941 -0.045000002
0.038570583 -0.02647334 -0.045000002
0.040553801 -0.026453823 -0.045000002
0.04178305 -0.026671184 -0.045000002
0.042252317 -0.026258279 -0.045000002
0.044676535 -0.02656596 -0.045000002
0.045000002 -0.026668575 -0.044665001
-0.044783093 -0.025596911 -0.044526145
-0.04334835 -0.025541432 -0.045000002
-0.042145927 -0.025605895 -0.045000002
-0.041054104 -0.025013644 -0.045000002
-0.040342018 -0.025046041 -0.045000002
-0.039403643 -0.025440207 -0.045000002
-0.038355533 -0.025313113 -0.045000002
-0.036536422 -0.025118258 -0.045000002
-0.035218105 -0.025473857 -0.045000002
-0.034391113 -0.025532324 -0.045000002
-0.033035859 -0.025623498 -0.045000002
-0.031086257 -0.025064064 -0.045000002
-0.029253209 -0.025698176 -0.045000002
-0.028373534 -0.025154063 -0.045000002
-0.027414745 -0.025392095 -0.045000002
-0.026241437 -0.025367845 -0.045000002
-0.025481617 -0.0253515 -0.045000002
-0.02452472 -0.025412103 -0.045000002
-0.022688529 -0.025004594 -0.045000002
-0.021338779 -0.025372013 -0.045000002
-0.020797515 -0.025568109 -0.045000002
-0.019269705 -0.025541486 -0.045000002
-0.018158782 -0.025914803 -0.045000002
-0.017938817 -0.025784874 -0.044999998
-0.016850963 -0.025052894 -0.045000002
-0.015290817 -0.02571789 -0.045000002
-0.014706619 -0.025974687 -0.045000002
-0.013364141 -0.025570309 -0.045000002
-0.012521733 -0.025623843 -0.045000002
-0.011432166 -0.025671771 -0.045000002
-0.010642566 -0.02542481 -0.045000002
-0.0095972344 -0.025371201 -0.045000002
-0.0081321057 -0.02532823 -0.045000002
-0.0073787197 -0.025395285 -0.045000002
-0.0062216092 -0.025527308 -0.045000002
-0.0057020374 -0.025511844 -0.045000002
-0.0044868346 -0.025425622 -0.045000002
-0.0030848514 -0.025188847 -0.045000002
-0.0026067062 -0.025469393 -0.045000002
-0.0014219848 -0.025599346 -0.045000002
-0.00067971769 -0.025620123 -0.045000002
0.00052982243 -0.025081774 -0.045000002
0.0013824645 -0.025216065 -0.045000002
0.002578035 -0.02547916 -0.045000002
0.003479549 -0.02584726 -0.045000002
0.0043513076 -0.025490312 -0.045000002
0.0052350038 -0.025604561 -0.045000002
0.0063816444 -0.025520878 -0.045000002
0.0083733574 -0.025400864 -0.045000002
0.010307588 -0.025402721 -0.045000002
0.011396043 -0.025654199 -0.045000002
0.012952107 -0.025661726 -0.045000002
0.013348524 -0.025419811 -0.045000002
0.014291109 -0.025621101 -0.045000002
0.015329745 -0.025420683 -0.045000002
0.016564399 -0.025377827 -0.045000002
0.01748107 -0.025363762 -0.045000002
0.018387057 -0.025490444 -0.045000002
0.019328669 -0.025139004 -0.045000002
0.020431582 -0.02551505 -0.045000002
0.021603838 -0.02542354 -0.045000002
0.022573471 -0.025628593 -0.045000002
0.023558242 -0.025303965 -0.045000002
0.024558205 -0.025564866 -0.045000002
0.026118338 -0.025864333 -0.045000002
0.027373398 -0.025978444 -0.045000002
0.028558709 -0.025305286 -0.045000002
0.030404318 -0.025465172 -0.045000002
0.03178703 -0.025391489 -0.045000002
0.032382414 -0.025301971 -0.045000002
0.034110393 -0.025442237 -0.045000002
0.035303406 -0.025950462 -0.045000002
0.036453169 -0.025558503 -0.045000002
0.037730567 -0.025410241 -0.045000002
0.038463552 -0.025304534 -0.045000002
0.039386157 -0.025579536 -0.045000002
0.040223308 -0.025525536 -0.045000002
0.04150559 -0.025821244 -0.045000002
0.042612493 -0.02503977 -0.045000002
0.043403223 -0.025766021 -0.045000002
0.045000002 -0.025458824 -0.044459563
-0.044987306 -0.024340199 -0.045000002
-0.043544274 -0.024048898 -0.045000002
-0.042543199 -0.024490649 -0.045000002
-0.041189309 -0.024649568 -0.045000002
-0.040172432 -0.024591578 -0.045000002
-0.039395429 -0.024684718 -0.045000002
-0.038725652 -0.02475608 -0.045000002
-0.037545048 -0.024452774 -0.045000002
-0.036451977 -0.024535686 -0.045000002
-0.035516009 -0.02455567 -0.045000002
-0.034449387 -0.024508614 -0.045000002
-0.03375639 -0.02450189 -0.045000002
-0.031708371 -0.024267197 -0.045000002
-0.030142464 -0.024760209 -0.045000002
-0.029582039 -0.024622219 -0.045000002
-0.028885406 -0.024577413 -0.045000002
-0.02563877 -0.024825642 -0.045000002
-0.024395844 -0.024390958 -0.045000002
-0.022202117 -0.024334965 -0.045000002
-0.021809185 -0.024385767 -0.045000002
-0.020703819 -0.024532333 -0.045000002
-0.019878749 -0.024301529 -0.045000002
-0.01838259 -0.024467252 -0.045000002
-0.016721129 -0.02498211 -0.045000002
-0.015405281 -0.024047306 -0.045000002
-0.014593795 -0.024278242 -0.045000002
-0.0134212 -0.024564132 -0.045000002
-0.012791616 -0.024246983 -0.045000002
-0.010594891 -0.024591617 -0.045000002
-0.0095897689 -0.024158102 -0.045000002
-0.0085601127 -0.024481338 -0.045000002
-0.0076141586 -0.024877228 -0.045000002
-0.006184889 -0.024688361 -0.045000002
-0.0056466418 -0.024248879 -0.045000002
-0.0040905918 -0.024647517 -0.045000002
-0.0036706855 -0.024254501 -0.045000002
-0.0025197985 -0.024551924 -0.045000002
-0.0012186267 -0.024344604 -0.045000002
-0.00085912924 -0.024606163 -0.045000002
0.00074124988 -0.024672911 -0.045000002
0.0015159259 -0.02447235 -0.045000002
0.0021575575 -0.024271822 -0.045000002
0.0032854343 -0.024296671 -0.045000002
0.0040649176 -0.024382779 -0.045000002
0.0056759892 -0.024599295 -0.045000002
0.0062064361 -0.024145611 -0.045000002
0.0079383058 -0.024748504 -0.045000002
