# .PCD v0.7 - Point Cloud Data file format
VERSION 0.7
FIELDS x y z
SIZE 4 4 4
TYPE F F F
COUNT 1 1 1
WIDTH 352
HEIGHT 1
VIEWPOINT 0 0 0 1 0 0 0
POINTS 352
DATA ascii
-0.045000024 -0.04249908 -0.042424887
0.045000024 -0.042158086 -0.042201567
-0.04500005 -0.03509862 -0.042420369
0.04500005 -0.034587815 -0.04240822
-0.04500005 -0.025125081 -0.042352974
0.04500005 -0.025203833 -0.042385299
-0.04500005 -0.015170438 -0.042354595
0.045000046 -0.015119573 -0.042534709
-0.045000046 -0.0046081231 -0.042350326
0.045000046 -0.0053693657 -0.042692091
-0.04500005 0.0054496145 -0.042408902
0.045000046 0.0051392373 -0.042570047
-0.04500005 0.01492287 -0.042361155
0.04500005 0.015390883 -0.042707197
-0.045000046 0.02477585 -0.042573106
0.045000043 0.024871809 -0.042460877
-0.045000046 0.035150789 -0.042561311
0.04500005 0.035105597 -0.042481184
-0.043656494 0.04390971 -0.042365536
-0.034993004 0.045000043 -0.042359099
-0.025191506 0.045000046 -0.042685717
-0.014709993 0.04500005 -0.042414289
-0.00473481 0.04500005 -0.042516194
0.0052291951 0.04500005 -0.042509429
0.015254768 0.045000043 -0.042611711
0.024917882 0.04500005 -0.042614695
0.035132196 0.04500005 -0.042460322
0.043790381 0.043921728 -0.042650081
-0.04500005 -0.042399693 -0.03514811
0.04500005 -0.042490032 -0.035304487
-0.045000058 -0.035102334 -0.034938898
0.045000061 -0.035058744 -0.034710061
-0.045000061 -0.024970448 -0.034932222
0.045000061 -0.02540086 -0.035396624
-0.045000061 -0.014951224 -0.034763493
0.045000061 -0.014800115 -0.035284005
-0.045000061 -0.0049772477 -0.034701806
0.045000061 -0.0048081037 -0.034901746
-0.045000061 0.0050083734 -0.035316695
0.045000061 0.0054989038 -0.035305645
-0.045000061 0.015204637 -0.034896012
0.045000061 0.015126213 -0.034892574
-0.045000061 0.024775885 -0.035031937
0.045000061 0.024818566 -0.035052072
-0.045000058 0.034912214 -0.034932159
0.045000061 0.034819115 -0.035144508
-0.043626457 0.043765068 -0.035221756
-0.035024688 0.045000061 -0.034728333
-0.025027381 0.045000061 -0.034876015
-0.014881374 0.045000061 -0.035062015
-0.0048412164 0.045000058 -0.035292421
0.0052653346 0.045000061 -0.035018813
0.014822957 0.045000061 -0.034704883
0.024860961 0.045000058 -0.034702931
0.034910068 0.045000061 -0.035004765
0.043835074 0.043742612 -0.035007961
-0.04500005 -0.042536151 -0.025311103
0.04500005 -0.042463198 -0.025136244
-0.045000061 -0.034847058 -0.02500502
0.045000061 -0.034740884 -0.024913043
-0.045000061 -0.024927841 -0.024823785
0.045000061 -0.024904136 -0.024869785
-0.045000061 -0.014842852 -0.025087992
0.045000061 -0.015200743 -0.024663294
-0.045000058 -0.0051950109 -0.025021993
0.045000061 -0.0049615684 -0.024890987
-0.045000061 0.0050325631 -0.024987001
0.045000061 0.0051897615 -0.02514001
-0.045000061 0.01511765 -0.024980001
0.045000061 0.015042718 -0.025151711
-0.045000061 0.024996784 -0.024987474
0.045000061 0.025053661 -0.024644127
-0.045000058 0.034534007 -0.02467796
0.045000061 0.035092432 -0.024885656
-0.04360427 0.043832161 -0.025136992
-0.034981649 0.045000061 -0.02524928
-0.025017714 0.045000061 -0.025049241
-0.014943677 0.045000058 -0.025071945
-0.0051317043 0.045000061 -0.024874015
0.0049710413 0.045000058 -0.024981465
0.015176925 0.045000061 -0.02484992
0.025062894 0.045000061 -0.025031989
0.035107385 0.045000061 -0.025056798
0.043763757 0.043831892 -0.025015201
-0.04500005 -0.042480294 -0.015339849
0.04500005 -0.042556372 -0.01461551
-0.045000061 -0.03496623 -0.014722383
0.045000061 -0.034954276 -0.015274404
-0.045000061 -0.025071695 -0.014950355
0.045000061 -0.024874967 -0.014759533
-0.045000061 -0.014947117 -0.01507997
0.045000061 -0.014700341 -0.014876653
-0.045000058 -0.0053077131 -0.014657962
0.045000061 -0.0047342051 -0.014643638
-0.045000061 0.005125368 -0.01495499
0.045000058 0.0052561704 -0.014867328
-0.045000061 0.015334019 -0.015099044
0.045000061 0.015260348 -0.01497683
-0.045000061 0.024860207 -0.014986359
0.045000061 0.024982549 -0.015106974
-0.045000061 0.034909692 -0.014971861
0.045000061 0.034688283 -0.015181572
-0.043727599 0.043768506 -0.015128912
-0.034985382 0.045000061 -0.014774887
-0.024885815 0.045000061 -0.015014494
-0.015092641 0.045000061 -0.015201543
-0.0047803265 0.045000061 -0.015218478
0.0049106581 0.045000061 -0.014936943
0.014912709 0.045000058 -0.015075699
0.024746068 0.045000061 -0.014810986
0.034912821 0.045000061 -0.0147062
0.043681715 0.043791153 -0.015028324
-0.04500005 -0.04249065 -0.005975707
0.04500005 -0.042526294 -0.004834767
-0.045000061 -0.035057873 -0.0052800342
0.045000061 -0.035094131 -0.0048922701
-0.045000061 -0.024977542 -0.004832672
0.045000061 -0.025202148 -0.0052185892
-0.045000058 -0.014792847 -0.0048574675
0.045000061 -0.015060436 -0.0050205002
-0.045000061 -0.0053089191 -0.0051074359
0.045000061 -0.0049406076 -0.0052458025
-0.045000061 0.0051444434 -0.005062609
0.045000061 0.0052555255 -0.0053122449
-0.045000061 0.015049417 -0.0049379878
0.045000061 0.015220069 -0.0050746384
-0.045000061 0.025256386 -0.0049433173
0.045000061 0.02499311 -0.0050958367
-0.045000061 0.035160769 -0.0048625241
0.045000061 0.035006285 -0.0052003278
-0.043595713 0.04385151 -0.0050453451
-0.034781698 0.045000061 -0.0049677929
-0.025032204 0.045000058 -0.0049678297
-0.014821262 0.045000061 -0.0052176192
-0.0051218052 0.045000061 -0.0051838527
0.0047272695 0.045000061 -0.0049500121
0.015042813 0.045000061 -0.0049950518
0.025003769 0.045000058 -0.0047428245
0.035052106 0.045000061 -0.0051550558
0.043857779 0.043594368 -0.0051962184
-0.04500005 -0.042282589 0.0052098944
0.045000046 -0.042535089 0.0052365409
-0.045000061 -0.034971014 0.0051786313
0.045000061 -0.035036329 0.0047728238
-0.045000061 -0.024863143 0.0048976247
0.045000061 -0.024998961 0.0048838831
-0.045000061 -0.014842961 0.005129768
0.045000061 -0.014812567 0.0050225649
-0.045000061 -0.0049977987 0.0048153815
0.045000058 -0.005065891 0.0049824524
-0.045000061 0.0049355035 0.0049768244
0.045000061 0.0049933949 0.0051154243
-0.045000061 0.015008089 0.0048481217
0.045000061 0.015232733 0.0051408918
-0.045000061 0.025247628 0.0052712336
0.045000061 0.024641845 0.0050322651
-0.045000061 0.034955222 0.0052009448
0.045000061 0.035081904 0.0048915059
-0.043666411 0.043710761 0.0052594771
-0.035246596 0.045000061 0.004909494
-0.024965717 0.045000061 0.0049959156
-0.014705033 0.045000061 0.004978091
-0.0049059317 0.045000061 0.00469751
0.0048873494 0.045000061 0.0047817654
0.015103451 0.045000061 0.0049326783
0.024755051 0.045000061 0.0048866994
0.034756672 0.045000061 0.0047933506
0.043659147 0.043735076 0.0051670042
-0.04500005 -0.04256127 0.014646824
0.04500005 -0.042513043 0.015145305
-0.045000061 -0.035045359 0.014744771
0.045000061 -0.034916971 0.015270999
-0.045000061 -0.025065474 0.015036887
0.045000061 -0.024730116 0.015091108
-0.045000061 -0.014922452 0.014869637
0.045000061 -0.014878191 0.015317139
-0.045000058 -0.0050046206 0.014875066
0.045000061 -0.0049883854 0.014971659
-0.045000061 0.0051093423 0.014969782
0.045000061 0.0048043928 0.014918954
-0.045000061 0.015039959 0.014995462
0.045000061 0.015183521 0.014966659
-0.045000058 0.024958095 0.014891624
0.045000061 0.024998534 0.015017291
-0.045000061 0.035091173 0.015119954
0.045000061 0.034965273 0.015167614
-0.043734837 0.043884728 0.015146028
-0.034836825 0.045000061 0.015284445
-0.024896866 0.045000061 0.01500513
-0.014765505 0.045000061 0.015213369
-0.004697423 0.045000061 0.015059366
0.0050980728 0.045000061 0.014910866
0.015147096 0.045000061 0.015176282
0.024843009 0.045000061 0.014896163
0.035121351 0.045000061 0.014995026
0.043560315 0.043942779 0.014813337
-0.045000046 -0.042471621 0.024783552
0.045000046 -0.042527605 0.025189901
-0.045000058 -0.03532752 0.024749724
0.045000061 -0.035140987 0.025045911
-0.045000061 -0.024786796 0.025225554
0.045000061 -0.024685938 0.024865303
-0.045000061 -0.015112849 0.025025373
0.045000061 -0.014794727 0.025404848
-0.045000061 -0.0050001205 0.025089778
0.045000061 -0.0047634658 0.024920791
-0.045000061 0.0049352753 0.025326021
0.045000061 0.0050477432 0.025340797
-0.045000061 0.01487922 0.024869639
0.045000061 0.015315616 0.025310192
-0.045000061 0.025084896 0.025267977
0.045000061 0.025257403 0.024773337
-0.045000061 0.035178527 0.025078522
0.045000061 0.035005275 0.02493543
-0.043622613 0.043718643 0.0249663
-0.035072938 0.045000058 0.02516238
-0.025075659 0.045000061 0.025001308
-0.015107511 0.045000061 0.024741361
-0.0049253381 0.045000061 0.024968999
0.0048310934 0.045000061 0.025059262
0.014973382 0.045000061 0.025404491
0.024660006 0.045000061 0.024827154
0.034897946 0.045000061 0.024884094
0.043800954 0.043585002 0.024945335
-0.045000046 -0.042361327 0.035010818
0.04500005 -0.042580962 0.034938097
-0.045000061 -0.035081033 0.035193108
0.045000061 -0.034907341 0.034866862
-0.045000061 -0.024851672 0.034978878
0.045000061 -0.025205828 0.034927595
-0.045000061 -0.015068333 0.035006177
0.045000061 -0.015030997 0.035127204
-0.045000061 -0.005041434 0.034832545
0.045000061 -0.0050539253 0.035159335
-0.045000061 0.0052154763 0.034967877
0.045000061 0.0047138943 0.034695324
-0.045000061 0.014890991 0.035108261
0.045000061 0.014960783 0.035078533
-0.045000058 0.025397405 0.034878891
0.045000061 0.024757523 0.034934524
-0.045000061 0.03525928 0.034908053
0.045000061 0.035141516 0.034865052
-0.043611988 0.043869883 0.034995243
-0.03507321 0.045000061 0.035211738
-0.024864806 0.045000061 0.034777444
-0.015065479 0.045000061 0.034986656
-0.0047718706 0.045000061 0.034769308
0.0049906974 0.045000061 0.034656685
0.015114874 0.045000061 0.035230014
0.024774861 0.045000061 0.035152368
0.035134256 0.045000058 0.034862477
0.043642975 0.04384606 0.035016987
-0.043809492 -0.042283557 0.044000391
-0.034639854 -0.042436827 0.045000046
-0.02489228 -0.042767826 0.045000046
-0.01490273 -0.042464584 0.045000046
-0.0050620525 -0.042422716 0.04500005
0.0049865446 -0.042541012 0.04500005
0.015200831 -0.042439178 0.045000046
0.024685923 -0.042574566 0.04500005
0.03516081 -0.042678438 0.045000043
0.043757718 -0.042617656 0.043776907
-0.04371614 -0.035190646 0.043727521
-0.03511947 -0.035072766 0.045000061
-0.024810307 -0.035216957 0.045000061
-0.014832487 -0.034908812 0.045000061
-0.00504877 -0.035222422 0.045000061
0.0048477589 -0.035116289 0.045000061
0.015166518 -0.034999259 0.045000061
0.02509742 -0.034914501 0.045000061
0.035078201 -0.034926217 0.045000061
0.043756735 -0.03522791 0.043754064
-0.04377133 -0.024820114 0.043653045
-0.034915436 -0.024918985 0.045000061
-0.024834236 -0.025040969 0.045000061
-0.015163407 -0.025038231 0.045000061
-0.0051156846 -0.025404178 0.045000058
0.0049741822 -0.02503621 0.045000061
0.015101453 -0.024619479 0.045000061
0.024842117 -0.025237093 0.045000058
0.034889992 -0.025249742 0.045000061
0.043592621 -0.024967272 0.043886267
-0.043679126 -0.015057118 0.043930192
-0.034978982 -0.014981703 0.045000061
-0.025342723 -0.014877908 0.045000061
-0.015011773 -0.015210009 0.045000058
-0.0048933816 -0.014670045 0.045000061
0.004955363 -0.01473528 0.045000061
0.014844276 -0.015148 0.045000058
0.024995422 -0.015108672 0.045000061
0.03507125 -0.015061805 0.045000061
0.043766968 -0.014921173 0.043687508
-0.043706402 -0.004745367 0.043771349
-0.035125662 -0.0050196946 0.045000061
-0.025485368 -0.0049978592 0.045000061
-0.01493954 -0.0050748708 0.045000061
-0.0046054958 -0.0048004659 0.045000061
0.0048342901 -0.0052379444 0.045000061
0.015172667 -0.0048460709 0.045000061
0.02502235 -0.0047441842 0.045000061
0.034875561 -0.0048134229 0.045000061
0.043717846 -0.0051070265 0.043857109
-0.043726709 0.0050406936 0.043575365
-0.034884702 0.005140062 0.045000061
-0.024871994 0.0048359227 0.045000061
-0.015131789 0.0053395177 0.045000061
-0.0047579375 0.0048675528 0.045000061
0.0052931746 0.004918742 0.045000061
0.014998239 0.0052721938 0.045000061
0.025266647 0.0051907403 0.045000061
0.034807187 0.0045509832 0.045000061
0.043704294 0.0051377355 0.043807637
-0.043958988 0.014921407 0.043683514
-0.034965951 0.014837152 0.045000061
-0.024945429 0.015293253 0.045000061
-0.015002725 0.014843108 0.045000061
-0.0050604143 0.015015792 0.045000061
0.0053005875 0.015043375 0.045000061
0.014929515 0.014966687 0.045000061
0.025290195 0.014530241 0.045000061
0.035106178 0.014916156 0.045000061
0.043806516 0.014794847 0.043697082
-0.043660842 0.025158785 0.043773953
-0.035025746 0.025275156 0.045000061
-0.025251729 0.024900118 0.045000061
-0.014712724 0.025003374 0.045000061
-0.0052050496 0.024986414 0.045000061
0.005132555 0.025044367 0.045000061
0.014878448 0.025244601 0.045000061
0.024540374 0.025102079 0.045000061
0.034973916 0.025022682 0.045000061
0.043885842 0.025207743 0.043686341
-0.043746527 0.035196826 0.043865465
-0.034845944 0.035022642 0.045000061
-0.025297735 0.034847599 0.045000061
-0.014775608 0.035132114 0.045000061
-0.0050822743 0.035009146 0.045000061
0.0049642152 0.035067666 0.045000061
0.015062482 0.034871947 0.045000061
0.025076209 0.035038099 0.045000061
0.034884404 0.035072088 0.045000061
0.043667663 0.034774456 0.043781057
-0.043322414 0.04324919 0.043125097
-0.034950759 0.04383596 0.043639068
-0.024826327 0.043741316 0.043660991
-0.015017648 0.043560129 0.04377627
-0.0051628957 0.043766595 0.043755122
0.0047119805 0.043898903 0.043580674
0.014892654 0.043756999 0.043617647
0.025122305 0.043832786 0.043689378
0.034750324 0.043745298 0.043775287
0.043308638 0.043254323 0.043336071
