# .PCD v0.7 - Point Cloud Data file format
VERSION 0.7
FIELDS x y z
SIZE 4 4 4
TYPE F F F
COUNT 1 1 1
WIDTH 1269
HEIGHT 1
VIEWPOINT 0 0 0 1 0 0 0
POINTS 1269
DATA ascii
-0.045000017 0.022378398 -0.032298353
0.044999991 0.02270397 -0.032434821
-0.044999987 0.027621258 -0.03213888
0.044999998 0.027619289 -0.032218397
-0.045000006 0.032860272 -0.032581598
-0.044999987 0.032344803 -0.032336753
0.044999998 0.032694474 -0.032374647
-0.045000006 0.037771519 -0.032788474
-0.044999987 0.037570562 -0.032570723
0.044999983 0.037488446 -0.032076333
-0.045000006 0.043143976 -0.031485904
-0.044999987 0.042580821 -0.032756563
0.045000002 0.042541787 -0.032601729
-0.042826809 0.045000006 -0.032433055
-0.037538126 0.045000002 -0.032478489
-0.032671005 0.045000002 -0.032353979
-0.027574403 0.044999994 -0.032706924
-0.022188859 0.044999991 -0.032352597
-0.017477566 0.045000006 -0.032800905
-0.012566483 0.044999994 -0.032770026
-0.0074256612 0.045000006 -0.032946177
-0.0022936224 0.044999987 -0.032441236
0.0021925333 0.044999987 -0.03268088
0.0078084404 0.045000017 -0.03218076
0.012464753 0.044999991 -0.032346144
0.01770029 0.044999987 -0.032275327
0.022346595 0.045000009 -0.032606371
0.027429942 0.044999998 -0.032705609
0.032368015 0.045000002 -0.032418244
0.037660338 0.044999987 -0.032404516
0.042156767 0.044999987 -0.032443047
-0.041993957 -0.045000006 -0.027819335
-0.035589542 -0.045000006 -0.027992195
-0.031165347 -0.045000006 -0.027246527
-0.029450875 -0.045000006 -0.026441924
0.041992623 -0.045000006 -0.028501319
-0.045000006 -0.040374104 -0.028991062
-0.043488026 -0.043970641 -0.02751014
-0.037569519 -0.044999998 -0.027330451
-0.032618552 -0.044999983 -0.027706403
-0.027794452 -0.044999983 -0.027386324
-0.022204874 -0.044999983 -0.027755035
-0.017715601 -0.044999998 -0.027754141
-0.012750036 -0.044999994 -0.027496502
-0.0074434974 -0.044999987 -0.027335795
-0.0025973583 -0.044999983 -0.027455147
0.0025651341 -0.045000006 -0.027533337
0.0077755768 -0.045000009 -0.02753731
0.012440807 -0.04500002 -0.027719587
0.017325431 -0.044999987 -0.027393773
0.022369009 -0.044999987 -0.027609047
0.027553305 -0.044999994 -0.02773552
0.032474056 -0.045000006 -0.027481502
0.037838805 -0.044999987 -0.02734792
0.042484138 -0.045000009 -0.027238069
0.044999994 -0.04212369 -0.027613105
-0.044999991 -0.037416838 -0.027744362
0.044999987 -0.037985064 -0.027420817
-0.044999998 -0.032450981 -0.027663071
0.044999987 -0.032469351 -0.027122907
-0.045000006 -0.027422806 -0.027298929
0.044999994 -0.027838117 -0.027358193
-0.044999998 -0.022692546 -0.027273219
0.044999994 -0.022358479 -0.027303718
-0.045000009 -0.017561473 -0.027669413
0.045000006 -0.017647836 -0.027720796
-0.045000002 -0.012728652 -0.027270706
0.044999991 -0.012894415 -0.027395844
-0.044999994 -0.0074389414 -0.027615093
0.045000006 -0.0076780799 -0.027107406
-0.044999994 -0.0025023276 -0.027329115
0.045000006 -0.002345657 -0.027542718
-0.045000002 0.0022154045 -0.027454795
0.045000013 0.0028028691 -0.027378531
-0.044999983 0.0074255182 -0.027442347
0.044999987 0.0075990744 -0.027667036
-0.044999994 0.01232982 -0.02736121
0.045000017 0.012475726 -0.027502611
-0.045000006 0.017503457 -0.027275365
0.045000006 0.017537881 -0.027476283
-0.044999994 0.02258148 -0.027441079
0.044999994 0.022373345 -0.027816935
-0.045000006 0.027413942 -0.026279259
-0.045000002 0.02711645 -0.027623503
0.044999983 0.02716928 -0.027994724
-0.045000006 0.033220328 -0.028055852
-0.044999998 0.032447472 -0.027029481
0.044999994 0.032574054 -0.027495148
-0.045000006 0.038247101 -0.027308671
-0.044999987 0.037393235 -0.027545068
0.045000006 0.037540294 -0.027392885
-0.045000006 0.043658186 -0.027157914
-0.044999998 0.042636994 -0.02726659
0.044999983 0.042193625 -0.027801806
-0.042570498 0.045000017 -0.027833896
-0.037561744 0.045000024 -0.027271446
-0.032277912 0.044999994 -0.027364144
-0.027714554 0.045000006 -0.027722826
-0.022599656 0.045000009 -0.02737046
-0.017617766 0.044999994 -0.027662709
-0.012356887 0.045000017 -0.027271397
-0.007934792 0.044999987 -0.027969567
-0.0025323934 0.044999987 -0.027730998
0.002701361 0.044999987 -0.027497821
0.0075600469 0.044999998 -0.027322181
0.012575691 0.045000002 -0.027504658
0.017733444 0.044999987 -0.027109047
0.022342099 0.044999991 -0.027554251
0.027904017 0.044999991 -0.027668597
0.032462951 0.044999994 -0.027359964
0.037314676 0.044999991 -0.02756994
0.042612046 0.044999983 -0.027613325
-0.044265762 -0.045000006 -0.022009268
-0.037473079 -0.045000006 -0.02196794
-0.034457814 -0.045000006 -0.022869334
-0.027822049 -0.045000006 -0.021924833
-0.023690846 -0.045000006 -0.020305704
0.042840268 -0.045000006 -0.021894364
-0.045000006 -0.042698454 -0.021560721
-0.043765925 -0.04356423 -0.022624917
-0.037468847 -0.044999987 -0.022464352
-0.031645153 -0.044999991 -0.022065267
-0.027756967 -0.044999991 -0.022031158
-0.022579782 -0.044999991 -0.022824638
-0.017590001 -0.045000009 -0.0226865
-0.01224314 -0.044999994 -0.023232747
-0.007605976 -0.044999994 -0.0230266
-0.0022929939 -0.045000013 -0.022660101
0.0024744943 -0.044999998 -0.022498894
0.0075331545 -0.044999994 -0.022604
0.012711041 -0.045000009 -0.022628777
0.017568817 -0.044999991 -0.023095427
0.022595022 -0.044999998 -0.022208616
0.027449481 -0.045000013 -0.022287255
0.032520726 -0.044999998 -0.022486586
0.037538979 -0.044999998 -0.022604547
0.042644005 -0.044999998 -0.022572061
0.044999998 -0.042362351 -0.022226375
-0.045000006 -0.039167501 -0.020212298
-0.044999983 -0.03747119 -0.022928419
0.045000006 -0.037474919 -0.02245705
-0.044999987 -0.032681763 -0.022491273
0.044999987 -0.03243842 -0.022345247
-0.044999987 -0.027442632 -0.022797719
0.044999987 -0.027650423 -0.022650953
-0.045000017 -0.022464952 -0.022419864
0.044999998 -0.022446606 -0.022797324
-0.044999998 -0.017756782 -0.022387566
0.044999987 -0.018037677 -0.022575978
-0.044999991 -0.012482634 -0.022430411
0.044999987 -0.012568974 -0.02289143
-0.044999991 -0.0077870968 -0.022318153
0.044999987 -0.0071198517 -0.02280141
-0.044999998 -0.0025118799 -0.022185167
0.044999987 -0.0027830326 -0.022582011
-0.044999998 0.0024013873 -0.022511588
0.045000002 0.0024371343 -0.022451812
-0.044999998 0.0072690342 -0.022363579
0.044999998 0.0072584716 -0.022509728
-0.045000006 0.012184444 -0.022247938
0.044999998 0.012508122 -0.022544116
-0.045000013 0.017805852 -0.022607336
0.044999991 0.017130762 -0.022782363
-0.045000006 0.024412706 -0.021807525
-0.044999998 0.022549078 -0.022781041
0.045000009 0.022416361 -0.022280999
-0.044999998 0.027799973 -0.022371748
0.044999991 0.027250065 -0.022373619
-0.045000006 0.033742379 -0.021088364
-0.044999983 0.032738496 -0.022161551
0.045000006 0.032656785 -0.022679279
-0.045000006 0.038763881 -0.022214502
-0.044999987 0.037363462 -0.023083605
0.045000002 0.037827402 -0.022805957
-0.045000006 0.04239836 -0.022582393
-0.044999994 0.042497445 -0.022675818
0.044999994 0.04269233 -0.022312623
-0.042670552 0.044999994 -0.022293188
-0.037939738 0.045000002 -0.022360267
-0.032445263 0.044999998 -0.022821587
-0.027370652 0.045000017 -0.022329675
-0.022374336 0.045000006 -0.022211954
-0.017559042 0.044999991 -0.022431234
-0.012132635 0.044999994 -0.022431344
-0.0071350196 0.044999991 -0.022665218
-0.0026937956 0.045000006 -0.022275193
0.0022913476 0.044999987 -0.022455957
0.0074755894 0.044999998 -0.022290617
0.012625465 0.044999987 -0.022710422
0.017383454 0.044999987 -0.02299767
0.022600502 0.044999991 -0.022540508
0.027714971 0.045000009 -0.022586547
0.032525152 0.045000013 -0.022515666
0.037324622 0.044999987 -0.022488367
0.042682931 0.044999991 -0.022522662
-0.042908635 -0.045000006 -0.015232391
-0.037177078 -0.045000006 -0.015423622
-0.032993689 -0.045000006 -0.017297501
-0.027825182 -0.045000006 -0.016075596
-0.021935856 -0.045000006 -0.018412165
-0.019805022 -0.045000006 -0.017599888
0.039496452 -0.045000006 -0.017615186
-0.045000006 -0.044620618 -0.018031431
-0.043761648 -0.043761589 -0.017435109
-0.037486706 -0.044999991 -0.017587986
-0.032303415 -0.045000009 -0.01759734
-0.027710782 -0.044999991 -0.017570356
-0.022917612 -0.044999994 -0.017693497
-0.017624578 -0.044999991 -0.017797858
-0.012297029 -0.044999983 -0.017485196
-0.00764179 -0.044999994 -0.017192131
-0.0020404004 -0.044999991 -0.017937789
0.002980636 -0.044999987 -0.017579773
0.0077380007 -0.045000002 -0.017342536
0.011944892 -0.045000006 -0.017234026
0.017930401 -0.045000006 -0.017493607
0.022419469 -0.044999991 -0.017675037
0.027527194 -0.044999998 -0.017090734
0.032345597 -0.045000009 -0.017612576
0.037395708 -0.045000006 -0.017280472
0.042081065 -0.044999987 -0.017426325
0.044999987 -0.042703025 -0.017714934
-0.044999998 -0.037185363 -0.01709437
0.044999991 -0.037861429 -0.017730832
-0.044999983 -0.032298844 -0.017961621
0.044999991 -0.032385945 -0.017402977
-0.044999991 -0.027471377 -0.01761735
0.045000002 -0.027447676 -0.01734942
-0.044999994 -0.022417512 -0.017896196
0.045000002 -0.022433212 -0.017523915
-0.045000009 -0.017228039 -0.017788837
0.045000002 -0.017006338 -0.017656153
-0.044999998 -0.01242518 -0.017690873
0.044999983 -0.012197027 -0.017389262
-0.045000006 -0.0074578621 -0.017441995
0.044999991 -0.0076984391 -0.017678196
-0.045000009 -0.0027186044 -0.0174476
0.045000006 -0.0028897868 -0.017290419
-0.045000006 0.0024269526 -0.017790323
0.045000002 0.0025600449 -0.017398428
-0.045000006 0.0073388182 -0.017411051
0.045000017 0.0074951919 -0.017518157
-0.044999998 0.012452338 -0.017456815
0.044999998 0.012746389 -0.017754298
-0.045000006 0.018992888 -0.018597754
-0.045000006 0.017542554 -0.017622449
0.044999998 0.017077843 -0.017509118
-0.045000006 0.02267224 -0.017860163
-0.044999998 0.022278018 -0.017585833
0.045000013 0.022419708 -0.01761006
-0.045000006 0.029276427 -0.019549813
-0.044999987 0.027749294 -0.017157212
0.044999994 0.027551739 -0.017359734
-0.045000006 0.032926701 -0.018409861
-0.044999987 0.032619905 -0.017536549
0.045000006 0.032103922 -0.017625403
-0.045000006 0.038398504 -0.017405102
-0.044999991 0.037667256 -0.017685605
0.045000009 0.037313804 -0.017558789
-0.045000006 0.042576067 -0.016069688
-0.044999998 0.042365111 -0.017456809
0.045000006 0.042306878 -0.017312942
-0.042579394 0.045000002 -0.017671833
-0.037686538 0.044999987 -0.017483011
-0.032675967 0.045000006 -0.017413577
-0.027431758 0.044999987 -0.017387565
-0.022617452 0.045000006 -0.017330183
-0.01753472 0.044999994 -0.017191693
-0.012406974 0.045000009 -0.017684683
-0.0073566344 0.044999987 -0.017526347
-0.0028703583 0.044999987 -0.017356332
0.0025456944 0.044999991 -0.017444937
0.007573138 0.044999994 -0.017813375
0.012516658 0.044999994 -0.017866589
0.017527184 0.045000013 -0.017460156
0.022587564 0.044999994 -0.017388327
0.02726827 0.044999991 -0.017664928
0.032761559 0.044999994 -0.017225437
0.037341915 0.044999991 -0.017636547
0.042430904 0.044999998 -0.017664181
-0.043502197 -0.045000006 -0.012445166
-0.036575198 -0.045000006 -0.013479426
-0.032156959 -0.045000006 -0.014304808
-0.023447549 -0.045000006 -0.012473439
0.037285298 -0.045000006 -0.012326762
-0.043976825 -0.043542784 -0.012372292
-0.037586201 -0.044999991 -0.012773255
-0.032390498 -0.044999998 -0.012518479
-0.02738928 -0.045000002 -0.012409853
-0.022384804 -0.045000002 -0.012562294
-0.017326072 -0.044999987 -0.012512729
-0.012503616 -0.044999983 -0.012445103
-0.0074082878 -0.045000002 -0.012578382
-0.0026029528 -0.044999998 -0.012451306
0.0025666545 -0.044999998 -0.012607291
0.0077382741 -0.044999994 -0.012568255
0.012110997 -0.044999991 -0.012398197
0.017454544 -0.044999998 -0.012425099
0.022778342 -0.044999994 -0.012760233
0.027632769 -0.045000009 -0.012375532
0.032358516 -0.045000006 -0.012398687
0.037622754 -0.045000002 -0.012256978
0.042608824 -0.045000009 -0.012545457
0.045000013 -0.042612195 -0.012652578
-0.045000006 -0.037567794 -0.012218033
0.045000009 -0.03737459 -0.012568104
-0.044999994 -0.032628801 -0.012506424
0.044999994 -0.032727681 -0.012579164
-0.044999991 -0.027391512 -0.012185581
0.045000006 -0.027710857 -0.012245166
-0.044999991 -0.022516483 -0.012196796
0.044999983 -0.022796907 -0.01252543
-0.044999987 -0.017571453 -0.012677283
0.045000009 -0.017343296 -0.012624457
-0.044999983 -0.012231922 -0.012633412
0.044999983 -0.012442273 -0.012146336
-0.044999983 -0.0069513898 -0.012296253
0.044999994 -0.0078098821 -0.012283024
-0.044999994 -0.0024540876 -0.012538053
0.044999991 -0.0022035853 -0.012017258
-0.045000009 0.0024090952 -0.01242531
0.045000009 0.002779162 -0.012421061
-0.045000006 0.007778117 -0.012720558
0.044999991 0.0074692252 -0.012358713
-0.045000002 0.012330287 -0.012446974
0.044999983 0.012315103 -0.012624592
-0.044999991 0.017516866 -0.012024055
0.044999987 0.017534178 -0.012539228
-0.045000006 0.023015996 -0.012317129
-0.045000006 0.022506012 -0.012530467
0.044999991 0.022528917 -0.012403905
-0.044999998 0.02764168 -0.01222857
0.045000002 0.027631339 -0.012510014
-0.045000006 0.031335875 -0.011777041
-0.044999998 0.032335192 -0.012560116
0.044999987 0.032312252 -0.012054025
-0.045000006 0.037407022 -0.012989486
-0.045000006 0.037383441 -0.012267312
0.044999991 0.037419762 -0.012647846
-0.045000006 0.044026464 -0.011790855
-0.044999994 0.042488962 -0.012360851
0.044999998 0.042321704 -0.012119082
-0.042155635 0.044999987 -0.012834084
-0.037548319 0.044999991 -0.012705066
-0.032400794 0.044999987 -0.012452576
-0.027508073 0.044999994 -0.012194694
-0.022435933 0.044999983 -0.011981229
-0.017305827 0.045000002 -0.012436473
-0.012158258 0.044999994 -0.012763418
-0.0075020781 0.045000006 -0.012477593
-0.0027383482 0.044999987 -0.012230203
0.0024417674 0.044999987 -0.012564809
0.0076855132 0.045000006 -0.012415435
0.012525218 0.044999994 -0.012879824
0.017488705 0.044999998 -0.012670529
0.022797946 0.044999998 -0.012560719
0.027500259 0.044999991 -0.012988485
0.032388117 0.044999991 -0.012387536
0.03735337 0.044999998 -0.012488156
0.042598497 0.045000006 -0.012671932
-0.044880241 -0.045000006 -0.0057887975
-0.032412872 -0.045000006 -0.007637498
-0.027461685 -0.045000006 -0.0078561576
-0.023722498 -0.045000006 -0.0095983278
0.032726701 -0.045000006 -0.0084712654
-0.045000006 -0.044060487 -0.008705765
-0.043613333 -0.043786768 -0.0077731372
-0.037683323 -0.044999998 -0.0074119316
-0.032650705 -0.044999998 -0.007421345
-0.02732191 -0.045000009 -0.0073630917
-0.022506787 -0.044999998 -0.0074954792
-0.01725845 -0.044999994 -0.0072405455
-0.012539819 -0.045000002 -0.0078064008
-0.0073160189 -0.045000002 -0.007204589
-0.0026878768 -0.044999991 -0.0070815231
0.0023881909 -0.045000002 -0.0076195537
0.0072661531 -0.045000009 -0.0077723246
0.012452594 -0.045000017 -0.007877972
0.017422762 -0.044999991 -0.007187705
0.022709273 -0.044999994 -0.0075041358
0.027453203 -0.044999994 -0.0079506133
0.032884475 -0.044999987 -0.0075202957
0.037440088 -0.044999991 -0.0072537754
0.042533051 -0.044999987 -0.0072763241
0.045000013 -0.042058464 -0.0073626391
-0.044999991 -0.037471641 -0.0074062208
0.044999994 -0.03744692 -0.0076927496
-0.045000009 -0.032448944 -0.0075250999
0.045000006 -0.032300502 -0.0074532875
-0.044999983 -0.027029248 -0.0073558437
0.044999998 -0.027471585 -0.0073243282
-0.044999998 -0.022559538 -0.007710625
0.044999994 -0.022343583 -0.0076974994
-0.044999987 -0.017431939 -0.0075254207
0.044999983 -0.017440541 -0.00770503
-0.044999998 -0.012710683 -0.007518094
0.045000017 -0.012368952 -0.0076279431
-0.045000009 -0.0074542682 -0.0072110081
0.045000006 -0.0078004193 -0.0072641969
-0.045000002 -0.0024150864 -0.0075764298
0.044999994 -0.0027458498 -0.0076132971
-0.044999991 0.0023437792 -0.0072508254
0.044999987 0.002451838 -0.0075241993
-0.044999987 0.0073880618 -0.0076089897
0.044999994 0.0075987037 -0.0075831767
-0.045000009 0.012575154 -0.0078890752
0.045000009 0.012605605 -0.0073686698
-0.045000006 0.017058978 -0.007368484
0.044999987 0.017472276 -0.0076446058
-0.044999991 0.022224396 -0.007212087
0.044999983 0.022331826 -0.0074572708
-0.045000006 0.026662022 -0.0087355757
-0.044999998 0.027615095 -0.0076221083
0.044999994 0.027748484 -0.0075347126
-0.044999987 0.032454461 -0.0078382138
0.044999991 0.032827605 -0.0073556947
-0.045000006 0.03975068 -0.0092491787
-0.044999987 0.037573345 -0.0076240958
0.044999994 0.037791979 -0.0072781728
-0.045000013 0.042432182 -0.0076657776
0.045000002 0.042384367 -0.0075837341
-0.042447124 0.04500002 -0.00732707
-0.037439112 0.045000009 -0.0071256929
-0.032304704 0.045000009 -0.0070196488
-0.02770252 0.045000009 -0.00720848
-0.022741899 0.044999991 -0.0072107404
-0.01749761 0.044999994 -0.0074412879
-0.012730693 0.044999991 -0.0075578312
-0.0075413007 0.045000009 -0.0071259881
-0.0024907303 0.044999991 -0.0075652376
0.0026460418 0.045000006 -0.0073630298
0.0075298189 0.044999987 -0.0074880803
0.012666177 0.044999991 -0.0074421489
0.017286016 0.045000009 -0.0075174076
0.022724273 0.044999991 -0.0073888265
0.027339809 0.044999998 -0.0078476146
0.032380894 0.044999983 -0.007347906
0.037482303 0.044999998 -0.0079826852
0.04273311 0.044999987 -0.0079148468
-0.043191385 -0.045000006 -0.0033677639
-0.038964048 -0.045000006 -0.0032327417
-0.034372743 -0.045000006 -0.0039751334
-0.025493789 -0.045000006 -0.0032888995
0.028620917 -0.045000006 -0.0048184702
-0.045000006 -0.044016529 -0.0036180466
-0.043498278 -0.043782961 -0.0024120479
-0.037517224 -0.044999998 -0.0023783096
-0.03274345 -0.044999998 -0.0024494673
-0.027367594 -0.045000009 -0.0026589145
-0.022233015 -0.045000013 -0.0026600629
-0.017238867 -0.044999983 -0.0025071444
-0.012157723 -0.044999998 -0.0022698438
-0.0077597196 -0.044999991 -0.0025751984
-0.0027554536 -0.045000013 -0.0025530271
0.0023230598 -0.044999987 -0.0028729904
0.0072945803 -0.044999998 -0.0026609201
0.012987486 -0.044999991 -0.0025822106
0.017640172 -0.044999983 -0.0027283088
0.022671571 -0.044999994 -0.0028089548
0.027366914 -0.044999983 -0.0023450537
0.032799102 -0.044999987 -0.0025968344
0.037423734 -0.044999994 -0.0024366602
0.042889502 -0.044999987 -0.0027353468
0.045000006 -0.042410262 -0.0026611183
-0.044999987 -0.037349448 -0.0024722158
0.045000006 -0.037468426 -0.0028271058
-0.045000006 -0.030018978 -0.0046686241
-0.045000006 -0.032389272 -0.0025167724
0.044999998 -0.03247932 -0.002349271
-0.045000006 -0.028573086 -0.0012867483
-0.044999994 -0.027120637 -0.0027615526
0.044999998 -0.027774362 -0.0025668687
-0.045000002 -0.022451881 -0.0020388984
0.045000009 -0.022115394 -0.0024403983
-0.044999991 -0.01774103 -0.0023929004
0.044999994 -0.018041419 -0.0024838354
-0.044999998 -0.012301521 -0.0025683057
0.044999998 -0.01260199 -0.002527246
-0.045000013 -0.0073929289 -0.0026167703
0.044999998 -0.0075557288 -0.0025051874
-0.044999987 -0.0026133412 -0.0024441103
0.044999991 -0.0020785816 -0.0024812617
-0.045000009 0.0023103782 -0.0023056683
0.044999987 0.0025859068 -0.0025194071
-0.045000002 0.0073871547 -0.0023892063
0.044999987 0.0074161734 -0.0022788809
-0.044999998 0.01271461 -0.0026356075
0.044999998 0.012646593 -0.0029290419
-0.045000009 0.017614003 -0.002317118
0.045000002 0.01740866 -0.0026217268
-0.045000006 0.023115885 -0.0049306145
-0.044999987 0.022528822 -0.0027377275
0.044999998 0.022508971 -0.002580039
-0.044999994 0.027044496 -0.0022760965
0.044999994 0.02753954 -0.0023334431
-0.045000006 0.031616986 -0.0020341277
-0.044999983 0.032429315 -0.0027017628
0.04500002 0.032395754 -0.0029344284
-0.044999998 0.037399791 -0.0027869346
0.044999994 0.0376013 -0.0024197891
-0.045000006 0.042238705 -0.002182113
-0.044999991 0.042615112 -0.0026079356
0.044999983 0.042631596 -0.0027367657
-0.042316783 0.044999987 -0.0027067917
-0.037461374 0.044999991 -0.002581581
-0.032142494 0.044999987 -0.0021977106
-0.027876223 0.044999998 -0.0024286665
-0.022529878 0.044999991 -0.0022899655
-0.017433457 0.044999987 -0.0027041794
-0.012580621 0.045000006 -0.0024164079
-0.0077818851 0.044999998 -0.0026201645
-0.0028275324 0.044999987 -0.0022453661
0.0026855485 0.044999994 -0.0023648131
0.0075824587 0.045000006 -0.0025061173
0.012754846 0.045000009 -0.0028976819
0.017097486 0.045000006 -0.0023450744
0.022739118 0.045000006 -0.0026175056
0.02787818 0.045000009 -0.0023438034
0.032538075 0.044999998 -0.0024045703
0.037331685 0.045000006 -0.0023175436
0.042488489 0.044999991 -0.0025934859
-0.033337999 -0.045000006 0.0048063481
0.028063472 -0.045000006 0.001288523
0.03288722 -0.045000006 0.0027784719
-0.045000006 -0.044816405 0.0035279151
-0.043806795 -0.043770805 0.0025499549
-0.037291277 -0.045000009 0.002647555
-0.032582447 -0.045000013 0.0026883164
-0.027314346 -0.045000006 0.0027507837
-0.022673765 -0.044999991 0.0024585323
-0.017561221 -0.044999987 0.002383726
-0.012434241 -0.044999987 0.0022643667
-0.0071009425 -0.045000006 0.0026314871
-0.0023437459 -0.045000009 0.0028915401
0.0026846556 -0.045000009 0.0024539141
0.007319083 -0.045000006 0.0022796674
0.012265284 -0.044999983 0.0026665775
0.017517844 -0.045000006 0.0025475319
0.022827201 -0.044999983 0.0026285741
0.027110163 -0.044999991 0.0023099831
0.032526471 -0.045000002 0.0027479003
0.037762176 -0.044999987 0.0023451194
0.04256656 -0.045000002 0.0022828942
0.044999994 -0.042477429 0.00286646
-0.044999987 -0.037655246 0.0023000166
0.044999987 -0.037342019 0.0025294493
-0.045000006 -0.032512236 0.002519032
0.044999987 -0.032873996 0.0025107849
-0.045000006 -0.026762258 0.004830976
-0.045000002 -0.027393304 0.0024213111
0.044999994 -0.027763247 0.0027197588
-0.044999987 -0.022186594 0.0025731898
0.045000006 -0.022005454 0.0023953144
-0.045000002 -0.017397312 0.002241726
0.044999991 -0.017298507 0.002440331
-0.044999987 -0.012055953 0.0022784206
0.044999983 -0.012854982 0.0024365792
-0.044999998 -0.0074632661 0.0025535075
0.044999983 -0.0076779341 0.0028279314
-0.045000009 -0.0021960519 0.0025986086
0.044999987 -0.0025451777 0.0018757095
-0.045000002 0.0019746041 0.0024281654
0.044999991 0.0022615751 0.0024961822
-0.044999998 0.0072443201 0.0025702415
0.044999991 0.0078941556 0.0027019023
-0.044999983 0.012235952 0.0023368974
0.044999987 0.012313604 0.0026159955
-0.045000002 0.017625919 0.0023233627
0.044999987 0.017402591 0.002405067
-0.045000006 0.022300772 0.0025416142
0.044999983 0.022771416 0.0024605782
-0.045000006 0.029205535 0.00099784229
-0.045000002 0.027654195 0.0024958497
0.044999987 0.027537102 0.0025502921
-0.045000006 0.030768545 0.00066169538
-0.044999998 0.032517042 0.0026801354
0.044999987 0.032152455 0.0026578996
-0.044999998 0.037618134 0.0023028834
0.045000006 0.037157733 0.002546096
-0.044999983 0.042135265 0.002771063
0.045000002 0.042307809 0.0022636589
-0.042608198 0.044999987 0.0026138043
-0.03740469 0.044999998 0.0026511953
-0.032475241 0.044999987 0.0026445347
-0.027599661 0.044999994 0.0024137641
-0.022519993 0.044999991 0.0024934057
-0.017333165 0.044999994 0.0025157027
-0.012849708 0.045000006 0.0025822858
-0.0074316524 0.044999998 0.0024839421
-0.0021966605 0.044999991 0.0022644924
0.0023478423 0.044999998 0.0021217624
0.0074488027 0.044999998 0.0023086446
0.012480138 0.045000009 0.0024270085
0.017521158 0.044999994 0.0022870051
0.022097012 0.044999987 0.0023419454
0.0277318 0.044999983 0.0023346522
0.03244162 0.044999991 0.0029239703
0.037156519 0.045000006 0.0023949228
0.042283032 0.044999991 0.0026481489
-0.04408747 -0.045000006 0.0068154633
0.036715753 -0.045000006 0.0074468628
0.043324333 -0.045000006 0.0097097009
-0.04370233 -0.04363564 0.0076166862
-0.037367541 -0.044999987 0.0074042822
-0.03249976 -0.044999998 0.0073543978
-0.027306784 -0.044999987 0.0076716105
-0.02299251 -0.044999998 0.0074629937
-0.017445022 -0.045000006 0.007663527
-0.012429847 -0.045000013 0.0074545974
-0.0076097045 -0.044999998 0.0076047755
-0.0030889902 -0.045000006 0.0076970519
0.0026253476 -0.045000009 0.007766562
0.0073896428 -0.044999994 0.007558086
0.012654151 -0.045000002 0.0075299079
0.017205259 -0.044999987 0.0078186607
0.022418877 -0.044999991 0.0074361227
0.027269846 -0.044999987 0.0077622849
0.032634046 -0.045000006 0.0073477328
0.037378114 -0.044999987 0.0073120515
0.042349454 -0.045000006 0.0075860224
0.04500002 -0.04261636 0.007803699
-0.045000006 -0.035990983 0.0071480786
-0.045000009 -0.03758141 0.0076265605
0.044999998 -0.037453711 0.0076405816
-0.045000006 -0.032109208 0.0083147325
-0.044999991 -0.032615516 0.0076620858
0.045000006 -0.032453015 0.0076250173
-0.044999991 -0.027885444 0.0075823111
0.044999994 -0.027381929 0.0074440655
-0.045000006 -0.02333219 0.0063883429
-0.044999991 -0.022549149 0.0073712692
0.044999998 -0.022510951 0.0071217101
-0.044999998 -0.017174019 0.0075770626
0.044999991 -0.017317161 0.0075931139
-0.044999983 -0.012471297 0.0073251645
0.044999991 -0.01258679 0.0074680587
-0.044999987 -0.0072280415 0.0076404209
0.044999998 -0.0077303112 0.0074212891
-0.044999983 -0.0027516596 0.0074150609
0.045000006 -0.0025940577 0.0074468916
-0.044999987 0.0025733905 0.0074176448
0.045000002 0.0025580879 0.0075692539
-0.044999987 0.007464767 0.0074124332
0.045000009 0.0077289212 0.0077237659
-0.044999991 0.012529521 0.0075012106
0.044999983 0.012806676 0.0077006295
-0.044999987 0.017451609 0.0077739577
0.045000002 0.017516386 0.0076305
-0.045000009 0.022245087 0.0072155115
0.044999991 0.02268853 0.0077717691
-0.044999987 0.028047442 0.0077729383
0.045000009 0.027418109 0.0076017012
-0.045000006 0.032891206 0.0091068633
-0.044999994 0.032472927 0.0075366851
0.044999994 0.032594491 0.0071684881
-0.044999991 0.037366651 0.0072513903
0.044999994 0.037270389 0.0074324794
-0.045000006 0.041058708 0.0068127811
-0.045000013 0.042299341 0.0074799219
0.045000009 0.042506266 0.0073914537
-0.042435516 0.044999994 0.0074690296
-0.037349962 0.045000006 0.0078494949
-0.032497384 0.044999987 0.0074578985
-0.027277306 0.044999987 0.008075458
-0.022666022 0.044999994 0.0073736655
-0.017338822 0.044999998 0.0076842518
-0.012615911 0.044999991 0.0074467366
-0.0074328096 0.044999991 0.0070782606
-0.0024384938 0.044999991 0.0069717849
0.0027315936 0.045000009 0.0071560717
0.0072839218 0.045000002 0.0075769546
0.012498661 0.044999983 0.0075868373
0.017378336 0.044999994 0.0075166328
0.022711841 0.044999998 0.0078753894
0.027629897 0.045000002 0.0078940336
0.032649092 0.045000006 0.0075545991
0.037778556 0.044999987 0.0077961413
0.042390943 0.045000009 0.0074810949
0.023158748 -0.045000006 0.011572877
0.027652904 -0.045000006 0.012899178
0.034420852 -0.045000006 0.013107849
0.03861127 -0.045000006 0.012531526
0.043027449 -0.045000006 0.012959453
-0.045000006 -0.04473713 0.014592721
-0.043578211 -0.043768659 0.012724961
-0.037508469 -0.045000009 0.012201095
-0.032268111 -0.045000002 0.012352047
-0.02746263 -0.044999983 0.012378375
-0.022547008 -0.045000002 0.012586619
-0.017139994 -0.045000017 0.012393796
-0.012362614 -0.044999987 0.012825449
-0.0071662506 -0.044999994 0.01244212
-0.0024674619 -0.044999998 0.012569092
0.002547753 -0.044999994 0.012382984
0.00713616 -0.045000009 0.0121445
0.012648433 -0.044999991 0.012475561
0.017772004 -0.044999987 0.012578694
0.022691514 -0.044999987 0.012405904
0.027592909 -0.045000009 0.012360381
0.0323814 -0.045000006 0.01245582
0.037504934 -0.044999987 0.012616326
0.042262033 -0.044999991 0.012278217
0.044999987 -0.042629365 0.012385022
-0.045000006 -0.037087929 0.012753278
-0.044999987 -0.037562378 0.012785917
0.045000006 -0.037699733 0.012513451
-0.045000006 -0.032380994 0.010788281
-0.044999991 -0.03227973 0.012400894
0.045000017 -0.032718677 0.012502913
-0.045000006 -0.026908502 0.012810434
-0.044999998 -0.027510755 0.012884542
0.045000009 -0.027347038 0.012618673
-0.045000006 -0.022937348 0.011839688
-0.045000009 -0.022541096 0.012226569
0.044999994 -0.0221886 0.012164906
-0.044999994 -0.017156668 0.012757169
0.045000006 -0.017376546 0.012686474
-0.044999998 -0.01273639 0.012499991
0.044999987 -0.012059122 0.012746973
-0.044999987 -0.0070778336 0.01242711
0.045000002 -0.0074469307 0.012583711
-0.045000009 -0.0021995644 0.012457315
0.044999991 -0.0028235142 0.012421325
-0.045000002 0.0022518586 0.012138786
0.045000006 0.0022629134 0.012367913
-0.045000006 0.0076801367 0.01252458
0.044999991 0.0071208612 0.012397478
-0.044999983 0.012721985 0.012541789
0.044999991 0.012646317 0.012564464
-0.045000009 0.01721246 0.012276183
0.044999998 0.017497141 0.012530585
-0.045000006 0.022325931 0.012351398
0.045000009 0.022307931 0.012161487
-0.044999987 0.027616885 0.012671631
0.045000009 0.027544839 0.012781697
-0.044999987 0.032418627 0.012821109
0.044999994 0.032041106 0.012305781
-0.045000006 0.037663791 0.012533171
0.044999998 0.037444927 0.012809308
-0.045000006 0.043393787 0.013141464
-0.045000006 0.042634446 0.012452046
0.045000017 0.04252151 0.012288577
-0.042502075 0.045000006 0.012715258
-0.037448253 0.044999987 0.012213503
-0.032469992 0.045000006 0.01242107
-0.027544595 0.044999998 0.012486162
-0.022402935 0.044999998 0.012507148
-0.017692553 0.045000002 0.012860462
-0.012511496 0.044999991 0.012268131
-0.0075689368 0.044999987 0.012711949
-0.0025618838 0.045000002 0.01251313
0.0027395138 0.045000002 0.012487635
0.0074366727 0.045000017 0.012529552
0.012435311 0.044999983 0.012534281
0.017559582 0.045000009 0.012148036
0.022356274 0.044999987 0.012506694
0.027175186 0.045000002 0.012531175
0.032665454 0.044999994 0.012442465
0.0375663 0.045000002 0.012729047
0.042452529 0.044999998 0.012549926
-0.044209257 -0.045000006 0.018306628
0.023229435 -0.045000006 0.016769946
0.028077114 -0.045000006 0.018128455
0.036547981 -0.045000006 0.017256277
0.042209104 -0.045000006 0.017387141
-0.043723341 -0.043852229 0.017337622
-0.037406474 -0.044999994 0.017804047
-0.032504659 -0.045000002 0.017227469
-0.02725824 -0.044999994 0.017292479
-0.022823544 -0.045000002 0.017354175
-0.017659226 -0.045000013 0.017817236
-0.01249581 -0.045000009 0.017520366
-0.0074778367 -0.045000017 0.017665816
-0.002229535 -0.045000013 0.017540323
0.0025614272 -0.045000006 0.017382711
0.0074568684 -0.044999998 0.017316293
0.012594862 -0.044999994 0.017730035
0.017587636 -0.044999991 0.01734815
0.02217629 -0.044999994 0.017458374
0.02736293 -0.044999987 0.017389122
0.03246896 -0.044999991 0.017633447
0.037512463 -0.044999998 0.017103547
0.042368419 -0.044999998 0.017978856
0.045000009 -0.042516004 0.017601993
-0.045000006 -0.035120431 0.015683319
-0.044999994 -0.036908105 0.017511128
0.044999987 -0.037809908 0.017889677
-0.045000006 -0.03288177 0.018864581
-0.044999998 -0.032842442 0.0175163
0.044999998 -0.032485593 0.017551731
-0.045000006 -0.027458038 0.017614987
-0.045000002 -0.02751253 0.017382059
0.045000002 -0.027709015 0.017700536
-0.045000006 -0.0216524 0.015953496
-0.045000017 -0.022261843 0.017492432
0.044999998 -0.022693573 0.017465692
-0.044999991 -0.017581934 0.017250031
0.045000002 -0.01761223 0.017347813
-0.045000009 -0.012353717 0.017696498
0.045000006 -0.012326336 0.017373309
-0.044999991 -0.0074191024 0.017444851
0.044999991 -0.0077146967 0.017370097
-0.045000009 -0.0026302359 0.01781496
0.044999991 -0.0025601073 0.017545993
-0.044999987 0.0023642748 0.01735048
0.044999991 0.002644137 0.017730286
-0.044999987 0.0078436388 0.017632691
0.045000006 0.0077002365 0.017571406
-0.044999994 0.012724069 0.017288417
0.044999987 0.012574108 0.017708087
-0.044999991 0.017513532 0.017553691
0.044999987 0.017300798 0.017330343
-0.044999987 0.022586221 0.01753697
0.044999991 0.022419637 0.017583139
-0.044999991 0.027322577 0.01725339
0.044999994 0.027240943 0.017599629
-0.045000006 0.032467503 0.015727945
-0.045000002 0.032453783 0.017488027
0.044999998 0.032467686 0.017931834
-0.045000006 0.039924651 0.019580342
-0.044999994 0.037558272 0.017549759
0.045000006 0.037514891 0.017811585
-0.045000006 0.042758755 0.018097414
-0.044999998 0.04228688 0.017752331
0.044999998 0.042443674 0.017178129
-0.042166371 0.044999991 0.017566828
-0.037374862 0.044999991 0.017304193
-0.032536358 0.044999987 0.017303599
-0.027426776 0.044999983 0.017297342
-0.022241116 0.045000009 0.01742392
-0.017283585 0.044999991 0.017437605
-0.012236817 0.044999987 0.017523954
-0.0072955289 0.044999987 0.017701244
-0.0025120464 0.044999991 0.017409522
0.0025288493 0.045000002 0.017730759
0.0073863384 0.045000006 0.017674876
0.012409981 0.044999994 0.017612614
0.017778488 0.044999998 0.017368995
0.022245431 0.044999994 0.01742246
0.027581712 0.044999991 0.017254999
0.033012439 0.044999994 0.017591812
0.037734635 0.044999987 0.017734405
0.042725295 0.044999991 0.017176639
-0.041695073 -0.045000006 0.023879342
-0.037750944 -0.045000006 0.022745211
0.026075328 -0.045000006 0.022978511
0.030426823 -0.045000006 0.022208989
0.037447408 -0.045000006 0.024080765
0.042612337 -0.045000006 0.022996802
-0.045000006 -0.043099143 0.021307636
-0.04360259 -0.043634374 0.022415981
-0.03723995 -0.044999987 0.022831598
-0.032244451 -0.044999987 0.022114296
-0.027421372 -0.045000009 0.022523219
-0.02286306 -0.044999998 0.022036234
-0.01741178 -0.044999983 0.022458714
-0.012602988 -0.045000006 0.022815943
-0.007336745 -0.044999991 0.022311591
-0.0024072528 -0.044999994 0.022407286
0.0023788351 -0.044999987 0.022615064
0.0078034382 -0.044999987 0.022793179
0.012893011 -0.044999987 0.0228303
0.017497454 -0.045000006 0.022648955
0.022224819 -0.044999991 0.022643628
0.027732713 -0.044999983 0.022614358
0.032245912 -0.044999991 0.022849033
0.037362933 -0.044999991 0.022525847
0.042569268 -0.045000006 0.022658944
0.044999991 -0.042238835 0.022716204
-0.045000006 -0.037608847 0.024741899
-0.044999983 -0.037770174 0.022474211
0.044999983 -0.037368741 0.022246404
-0.045000006 -0.031944621 0.022868372
-0.044999994 -0.032533709 0.02268563
0.044999994 -0.032571912 0.022341797
-0.045000006 -0.028178906 0.021388998
-0.044999987 -0.027526062 0.02253909
0.044999998 -0.027634401 0.022477305
-0.045000006 -0.02261815 0.021556027
-0.045000002 -0.022445178 0.02246646
0.045000009 -0.022603322 0.022996092
-0.045000009 -0.017703163 0.02272447
0.044999998 -0.017405327 0.02226902
-0.045000006 -0.012273035 0.022628544
0.044999994 -0.01265521 0.022411386
-0.044999994 -0.0075770738 0.022479525
0.044999994 -0.0076731849 0.022298552
-0.044999998 -0.0025426913 0.022206279
0.044999987 -0.0028506566 0.022457751
-0.045000009 0.0025888325 0.022721436
0.045000002 0.0023061519 0.022527723
-0.044999991 0.007794159 0.0224168
0.045000013 0.0075426907 0.022574855
-0.044999987 0.012401577 0.022434454
0.044999983 0.012445648 0.022435158
-0.044999987 0.017418019 0.022309655
0.045000013 0.017400391 0.02233191
-0.045000002 0.022361683 0.022708409
0.044999987 0.022726597 0.022554431
-0.044999983 0.027144926 0.022164015
0.045000009 0.027620578 0.022378311
-0.045000006 0.032357626 0.022283634
0.045000002 0.032556031 0.02242516
-0.045000006 0.039871588 0.024703048
-0.044999991 0.037404556 0.02246801
0.044999983 0.03733233 0.022700004
-0.045000006 0.04277911 0.02284017
-0.044999983 0.042137686 0.022363039
0.044999998 0.042605281 0.022475209
-0.042746879 0.045000002 0.022670167
-0.037361164 0.044999987 0.022328475
-0.032402538 0.044999983 0.022233602
-0.027754165 0.044999987 0.022580227
-0.02266345 0.045000009 0.022343012
-0.017486338 0.045000006 0.022532683
-0.012591681 0.045000002 0.022361582
-0.0073212585 0.044999994 0.022546297
-0.002206455 0.045000006 0.022594374
0.0020787742 0.044999991 0.022981258
0.0074905232 0.045000002 0.022728594
0.011866406 0.044999994 0.022446476
0.017477436 0.045000006 0.02227303
0.022994148 0.044999991 0.022253241
0.027330536 0.044999987 0.022675648
0.032243393 0.045000006 0.02244531
0.037527267 0.045000002 0.022234999
0.042613763 0.045000009 0.022221794
-0.041929062 -0.045000006 0.02758413
-0.036621697 -0.045000006 0.02746076
0.032949138 -0.045000006 0.025265785
0.037980005 -0.045000006 0.026019273
-0.045000006 -0.040274281 0.028977761
-0.043544386 -0.043601386 0.027559118
-0.037837721 -0.044999994 0.027670939
-0.032739617 -0.044999998 0.027362572
-0.027342824 -0.045000013 0.027563162
-0.022258123 -0.045000002 0.02756699
-0.017402289 -0.044999983 0.027752191
-0.012564187 -0.044999991 0.02779749
-0.0075956057 -0.045000002 0.027027674
-0.0024116426 -0.044999987 0.027727297
0.0028015259 -0.044999983 0.027447291
0.0072798254 -0.044999987 0.027447751
0.012359928 -0.044999983 0.02728687
0.017556293 -0.044999987 0.027694477
0.022510627 -0.045000002 0.027708407
0.027503252 -0.044999991 0.027316142
0.032553069 -0.045000009 0.02776847
0.03764578 -0.045000006 0.027703155
0.0421138 -0.044999998 0.027453681
0.044999998 -0.042568952 0.027400419
-0.045000006 -0.038589638 0.027650885
-0.045000006 -0.037844218 0.027396102
0.044999991 -0.037595253 0.027325511
-0.045000006 -0.032242656 0.028193496
-0.044999987 -0.032130629 0.027674977
0.045000006 -0.032255962 0.027600395
-0.045000006 -0.029111749 0.025737783
-0.044999998 -0.027894787 0.027472029
0.044999987 -0.02745582 0.027381729
-0.045000006 -0.022730453 0.027435364
0.044999991 -0.022548577 0.027511181
-0.044999998 -0.017122017 0.027256647
0.044999994 -0.01741185 0.02754817
-0.044999987 -0.012777761 0.027581554
0.045000002 -0.012769537 0.027640631
-0.044999998 -0.0075009195 0.02768605
0.045000006 -0.0076107839 0.027159357
-0.044999991 -0.0024903095 0.027545454
0.044999998 -0.0026023635 0.027392892
-0.04500002 0.0027832335 0.027659377
0.045000002 0.002510828 0.027551148
-0.044999998 0.0074233082 0.027362764
0.045000002 0.0069470666 0.027621802
-0.04500002 0.012640029 0.027640585
0.044999994 0.012497281 0.027422462
-0.044999991 0.017473131 0.027526546
0.044999998 0.01769327 0.027716426
-0.044999987 0.021965185 0.027186804
0.045000017 0.02267185 0.027178314
-0.044999987 0.027570605 0.027566211
0.044999991 0.027656771 0.027634453
-0.044999991 0.032563966 0.027377022
0.044999983 0.03233932 0.027379757
-0.045000006 0.036983542 0.026817283
-0.045000002 0.037324887 0.02729179
0.044999998 0.037204333 0.027270261
-0.045000006 0.042187225 0.027411141
-0.044999998 0.042482365 0.027557179
0.045000009 0.042452361 0.027466893
-0.042711675 0.044999991 0.027716139
-0.037591539 0.044999991 0.027377799
-0.032242022 0.044999987 0.027363872
-0.027141033 0.044999991 0.027712515
-0.022317797 0.045000009 0.027400848
-0.017772753 0.044999998 0.02744491
-0.012535654 0.045000006 0.027440865
-0.0074791908 0.045000017 0.027446793
-0.0024888511 0.045000006 0.027524043
0.002534183 0.045000013 0.027657481
0.0073913308 0.045000013 0.027357444
0.012445389 0.044999994 0.027513331
0.017623708 0.044999983 0.027445788
0.022171469 0.045000006 0.027379157
0.027170744 0.045000017 0.027652202
0.032275531 0.045000006 0.027396318
0.037925415 0.045000002 0.0276441
0.04242596 0.044999987 0.027202256
-0.043653838 -0.045000006 0.032563537
-0.035515886 -0.045000006 0.031373519
-0.032044742 -0.045000006 0.033005029
0.032037295 -0.045000006 0.030246554
0.037050776 -0.045000006 0.033724472
0.044022396 -0.045000006 0.033688959
-0.045000006 -0.041103851 0.034817185
-0.04369995 -0.043721229 0.032342955
-0.037677042 -0.044999994 0.032535523
-0.032522663 -0.045000006 0.032369614
-0.027371351 -0.044999998 0.032954458
-0.022327639 -0.045000009 0.032791678
-0.01756713 -0.044999994 0.032747451
-0.012322721 -0.045000006 0.032686893
-0.0080087651 -0.044999994 0.032890614
-0.0026981267 -0.044999991 0.032508738
0.0023673004 -0.044999983 0.03250201
0.0076914728 -0.044999998 0.032306436
0.012501616 -0.045000002 0.032725014
0.0173251 -0.045000009 0.032417599
0.022484895 -0.044999998 0.032166421
0.027749732 -0.045000002 0.032335769
0.032554206 -0.044999998 0.032415185
0.037591353 -0.045000002 0.032338388
0.042087767 -0.044999987 0.032613695
0.044999987 -0.041969847 0.03234731
-0.045000006 -0.039290011 0.034017555
-0.045000002 -0.036744114 0.032594804
0.044999998 -0.037436653 0.032665387
-0.045000006 -0.033134729 0.031773821
-0.044999987 -0.032710511 0.03211242
0.044999991 -0.032584865 0.032547105
-0.044999991 -0.027749017 0.032561153
0.045000002 -0.027488921 0.032255616
-0.04500002 -0.022369485 0.032279339
0.045000002 -0.022601785 0.032290474
-0.045000002 -0.017416311 0.032659531
0.045000006 -0.017418148 0.032267205
-0.045000002 -0.012683105 0.032482199
0.044999994 -0.012172985 0.032573704
-0.044999998 -0.0070787286 0.032369405
0.045000006 -0.0076638102 0.032212459
-0.044999998 -0.0024969412 0.032193467
0.045000009 -0.0025946985 0.032259021
-0.044999998 0.0023702055 0.032364655
0.044999998 0.0027098495 0.032728814
-0.044999991 0.0070799515 0.032401573
0.044999994 0.0075491653 0.032553345
-0.044999991 0.012790711 0.032488983
0.045000006 0.012623311 0.032620471
-0.044999983 0.01735821 0.032550398
0.045000009 0.017723961 0.032755986
-0.044999998 0.022087689 0.032168459
0.045000006 0.022678399 0.032416686
-0.045000006 0.028276635 0.034322061
-0.044999998 0.027276451 0.032646161
0.044999991 0.027933644 0.032436576
-0.045000006 0.032832593 0.030116113
-0.044999991 0.033123672 0.0325577
0.045000006 0.032652609 0.032486577
-0.045000006 0.039074928 0.030382583
-0.044999991 0.037707832 0.032258358
0.045000013 0.037467562 0.032560412
-0.045000006 0.042426199 0.034433901
-0.044999991 0.042459898 0.032695252
0.044999998 0.042697493 0.032546155
-0.042251024 0.044999983 0.032440413
-0.037349641 0.044999991 0.032530408
-0.03286713 0.045000006 0.032565687
-0.027374886 0.044999991 0.032637656
-0.022747951 0.044999998 0.032403082
-0.017230486 0.044999983 0.032138575
-0.012795586 0.044999998 0.0325284
-0.0074853487 0.044999994 0.03285506
-0.0022946824 0.044999998 0.03259974
0.0027123892 0.044999998 0.032428674
0.0074385395 0.044999998 0.032549962
0.012413685 0.045000017 0.032645907
0.017724037 0.044999994 0.032733835
0.022425327 0.044999987 0.032568805
0.027509166 0.045000006 0.032414984
0.032325223 0.044999983 0.032829147
0.037339028 0.045000009 0.032522503
0.042820871 0.044999987 0.032255445
-0.0412727 -0.045000006 0.037077148
-0.036819909 -0.045000006 0.037378494
-0.032169834 -0.045000006 0.036856852
-0.028854746 -0.045000006 0.038070295
0.038871765 -0.045000006 0.0380289
0.041779209 -0.045000006 0.03686535
-0.045000006 -0.043822456 0.03829103
-0.04359974 -0.043791514 0.037438586
-0.037329022 -0.044999987 0.03776785
-0.032620251 -0.044999987 0.037455969
-0.02773881 -0.044999998 0.037440978
-0.022443347 -0.044999983 0.037449241
-0.017404936 -0.045000006 0.037235122
-0.012462836 -0.045000013 0.03741578
-0.0075030196 -0.044999991 0.037728589
-0.0022109582 -0.044999998 0.037603028
0.002454496 -0.045000002 0.037774414
0.0077588512 -0.045000002 0.037091728
0.012289183 -0.044999994 0.037319303
0.017412752 -0.044999991 0.03735847
0.022448795 -0.044999987 0.037528995
0.027239585 -0.044999987 0.037689801
0.032511983 -0.044999987 0.037372071
0.03740621 -0.044999998 0.03772052
0.04259697 -0.044999987 0.03779668
0.045000006 -0.042443246 0.037446141
-0.045000006 -0.038413465 0.035610322
-0.045000006 -0.037653189 0.037521839
0.044999987 -0.037340343 0.037572652
-0.045000002 -0.032125756 0.037530106
0.044999987 -0.032708749 0.037761874
-0.045000006 -0.027356265 0.037561521
0.045000006 -0.027195511 0.037689649
-0.045000009 -0.022609456 0.037708677
0.044999994 -0.022452623 0.037853792
-0.044999987 -0.01745696 0.03741131
0.044999991 -0.01759916 0.036910061
-0.044999998 -0.012511244 0.037467994
0.044999983 -0.012578181 0.037517942
-0.044999987 -0.0073171998 0.037387889
0.045000006 -0.0070971963 0.037411146
-0.044999987 -0.0023418609 0.037368257
0.044999987 -0.0024850708 0.037225518
-0.044999987 0.0026248975 0.037391137
0.045000009 0.0024476761 0.037547387
-0.044999987 0.0074773682 0.037483159
0.044999998 0.0073676631 0.037378777
-0.045000009 0.012779434 0.037514009
0.044999983 0.012578472 0.03757409
-0.045000006 0.017807392 0.037510145
0.045000002 0.017496346 0.037206646
-0.045000006 0.023590121 0.039070096
-0.044999991 0.022579074 0.037579406
0.044999998 0.022583731 0.03747806
-0.045000006 0.028127991 0.038893901
-0.044999994 0.027306942 0.037270095
0.044999987 0.027660789 0.037428632
-0.045000006 0.033656735 0.037386037
-0.044999987 0.032524094 0.036995322
0.044999991 0.032363381 0.037941732
-0.045000006 0.037649781 0.037726246
-0.044999998 0.037808817 0.037616257
0.044999991 0.037546653 0.037052978
-0.045000006 0.041524697 0.037709493
-0.045000006 0.042540673 0.037553772
0.045000013 0.042497419 0.037598804
-0.042219315 0.044999983 0.037670724
-0.037395749 0.045000006 0.037697311
-0.032493643 0.045000009 0.037607066
-0.027184403 0.044999983 0.037781678
-0.022522759 0.044999994 0.037496347
-0.017531293 0.044999991 0.037319619
-0.012843973 0.044999987 0.037486445
-0.0073495703 0.044999998 0.037167393
-0.0023359137 0.045000002 0.037292827
0.0026302172 0.044999991 0.037616502
0.0077050999 0.044999991 0.037581068
0.012539608 0.044999998 0.037654277
0.017340569 0.044999994 0.037689112
0.022491964 0.044999991 0.037400629
0.027851054 0.044999987 0.037375227
0.032700449 0.044999991 0.037350893
0.037545476 0.044999998 0.037142519
0.042219155 0.044999991 0.037574016
-0.042881057 -0.045000009 0.042699743
-0.037655201 -0.045000006 0.042490397
-0.032008309 -0.045000006 0.041802723
-0.027098289 -0.045000006 0.043086026
-0.023696342 -0.045000006 0.044281233
0.042689078 -0.045000006 0.041812539
-0.045000006 -0.043870278 0.042697351
-0.043604705 -0.043723773 0.042502854
-0.037327118 -0.044999991 0.042397629
-0.032278266 -0.044999987 0.042234242
-0.027784258 -0.044999998 0.042192809
-0.022186833 -0.044999994 0.042619631
-0.017345766 -0.044999987 0.042360324
-0.012442012 -0.045000006 0.042440303
-0.0072679245 -0.044999998 0.042522993
-0.0023056141 -0.045000009 0.042596798
0.0022250065 -0.044999994 0.042668551
0.0075700553 -0.045000009 0.042353302
0.01277772 -0.044999987 0.042787094
0.017690076 -0.044999991 0.042532574
0.022522034 -0.045000006 0.042636734
0.02760387 -0.045000002 0.042755403
0.032931559 -0.044999983 0.042773131
0.037462495 -0.044999987 0.042610962
0.042343471 -0.044999987 0.042675175
0.044999987 -0.04246534 0.042478744
-0.044999998 -0.037280925 0.042326339
0.044999998 -0.037628744 0.042663917
-0.044999998 -0.032472648 0.042310651
0.044999983 -0.032249879 0.04218746
-0.045000009 -0.027775384 0.042515229
0.045000002 -0.027725387 0.042269882
-0.045000013 -0.022260491 0.042366315
0.044999983 -0.022564877 0.042286426
-0.044999991 -0.017020838 0.042235877
0.045000006 -0.017690221 0.042416066
-0.044999991 -0.012234424 0.042445339
0.045000009 -0.01249784 0.042437319
-0.045000009 -0.0075375251 0.042375103
0.044999987 -0.0073333257 0.04239434
-0.044999994 -0.0027115962 0.042526893
0.044999998 -0.0022436734 0.04233611
-0.044999991 0.0023851774 0.042067096
0.044999994 0.0027204999 0.042554397
-0.044999983 0.0072547891 0.042390123
0.045000017 0.0075251386 0.042619828
-0.044999991 0.012562349 0.042195488
0.044999998 0.012427885 0.042316917
-0.045000006 0.019510444 0.043829348
-0.045000009 0.017203221 0.042370927
0.045000006 0.017516578 0.042704042
-0.044999998 0.022407593 0.042640783
0.044999994 0.022770034 0.042858981
-0.045000006 0.028174324 0.042958867
-0.045000013 0.027345981 0.042432066
0.044999998 0.027422499 0.042295095
-0.045000006 0.032503005 0.041599136
-0.045000002 0.032508723 0.042592611
0.044999991 0.032644141 0.042498156
-0.045000006 0.03670197 0.044967026
-0.044999983 0.03755137 0.042567518
0.044999998 0.037335902 0.042554636
-0.045000009 0.043118168 0.042243309
-0.044999994 0.042357795 0.042672969
0.044999998 0.042204514 0.042248517
-0.042609774 0.044999987 0.042713013
-0.037831254 0.044999987 0.042189024
-0.032593053 0.044999987 0.042596504
-0.027683416 0.044999994 0.042384628
-0.02247387 0.044999998 0.042091276
-0.017160987 0.044999987 0.042478923
-0.012561941 0.044999998 0.042666052
-0.0074284226 0.044999991 0.04260296
-0.0025518748 0.045000017 0.042658884
0.0026348133 0.044999991 0.042157575
0.0076684169 0.045000006 0.042405423
0.012485021 0.044999998 0.042637747
0.017698029 0.044999983 0.042234585
0.022817817 0.044999987 0.042642444
0.027734274 0.044999998 0.042289242
0.032442283 0.044999983 0.042595182
0.037519898 0.044999998 0.042480119
0.042159908 0.044999998 0.042150803
-0.042240232 -0.042315379 0.044999998
-0.037648581 -0.042351317 0.045000002
-0.032336131 -0.042676728 0.044999991
-0.027216198 -0.042562231 0.044999983
-0.02215912 -0.042764235 0.044999987
-0.017515151 -0.042431332 0.044999987
-0.012360611 -0.04252382 0.044999991
-0.0076471474 -0.042414844 0.044999994
-0.002659135 -0.042531785 0.045000013
0.0025398929 -0.04243366 0.044999991
