# .PCD v0.7 - Point Cloud Data file format
VERSION 0.7
FIELDS x y z
SIZE 4 4 4
TYPE F F F
COUNT 1 1 1
WIDTH 271
HEIGHT 1
VIEWPOINT 0 0 0 1 0 0 0
POINTS 271
DATA ascii
-0.045000032 -0.042497542 -0.042451549
-0.045000054 -0.035430402 -0.042424064
-0.04500005 -0.025118155 -0.04246898
-0.045000058 -0.015086109 -0.042371832
-0.04500005 -0.0051168455 -0.042458419
-0.045000054 0.0054016826 -0.0425593
-0.045000054 0.015158277 -0.042593159
-0.045000054 0.025285656 -0.042499963
-0.045000054 0.035111926 -0.042492826
-0.043785926 0.043733478 -0.042455062
-0.034894362 0.04500005 -0.042539641
-0.025231607 0.045000054 -0.042638853
-0.01503908 0.045000054 -0.04238385
-0.0048741195 0.045000054 -0.042356417
0.0052547776 0.045000054 -0.042506352
0.014779287 0.04500005 -0.042397238
0.024848949 0.045000054 -0.042428657
0.035016213 0.045000054 -0.04235151
0.042634707 0.045000032 -0.042523414
-0.045000054 -0.042386785 -0.035019923
-0.045000061 -0.034985568 -0.03504749
-0.045000061 -0.025203912 -0.03492333
-0.045000061 -0.015044417 -0.035002355
-0.045000061 -0.0050811446 -0.034871548
-0.045000061 0.0047283326 -0.034916367
-0.045000061 0.015140759 -0.034866013
-0.045000061 0.024766248 -0.034873277
-0.045000061 0.03487524 -0.035082057
-0.043656398 0.043759834 -0.035225578
-0.035196405 0.045000061 -0.03483982
-0.024852872 0.045000061 -0.035025038
-0.015110413 0.045000061 -0.035122182
-0.0049672825 0.045000061 -0.034744017
0.0049531064 0.045000061 -0.034814879
0.015009618 0.045000061 -0.034967259
0.024763901 0.045000061 -0.034777228
0.035165198 0.045000061 -0.034981824
0.042428538 0.04500005 -0.034821175
-0.04500005 -0.042433325 -0.025047412
-0.045000061 -0.034989581 -0.025057988
-0.045000061 -0.024723196 -0.024851553
-0.045000061 -0.01482224 -0.025251525
-0.045000061 -0.0050347447 -0.024995532
-0.045000061 0.0049571302 -0.025106464
-0.045000061 0.015294623 -0.02515652
-0.045000061 0.024900079 -0.024906516
-0.045000061 0.034731962 -0.024760777
-0.043701485 0.043848898 -0.02501522
-0.034855925 0.045000061 -0.024976965
-0.024667647 0.045000061 -0.024882494
-0.015041771 0.045000061 -0.025318889
-0.0048934878 0.045000061 -0.025053959
0.0048558232 0.045000061 -0.024917748
0.015133129 0.045000065 -0.024767904
0.025146123 0.045000065 -0.024738237
0.034882639 0.045000061 -0.024925124
0.042377286 0.045000054 -0.024974896
-0.045000054 -0.042434879 -0.015181778
-0.045000061 -0.034871306 -0.014975566
-0.045000061 -0.025036169 -0.015042732
-0.045000061 -0.01491176 -0.015247078
-0.045000061 -0.0050678579 -0.014915632
-0.045000061 0.0050028032 -0.01480737
-0.045000061 0.015293495 -0.015119202
-0.045000061 0.024828082 -0.015019105
-0.045000061 0.034870643 -0.014824724
-0.043672323 0.043772854 -0.015025678
-0.035105616 0.045000061 -0.014967957
-0.024879871 0.045000061 -0.014928998
-0.01508265 0.045000061 -0.015146544
-0.0049908464 0.045000061 -0.014910536
0.0047123833 0.045000065 -0.015099351
0.014890669 0.045000061 -0.014821389
0.024951968 0.045000065 -0.014967402
0.034953922 0.045000061 -0.015159594
0.042661652 0.04500005 -0.014614526
-0.045000054 -0.042534422 -0.0058830669
-0.045000061 -0.034962017 -0.0050632237
-0.045000061 -0.02492477 -0.0048546488
-0.045000061 -0.014866983 -0.0049509942
-0.045000061 -0.0050510834 -0.0050924513
-0.045000061 0.0050633373 -0.005047651
-0.045000061 0.015031292 -0.0049525844
-0.045000061 0.025166875 -0.0049260552
-0.045000061 0.035141841 -0.0050017019
-0.043542411 0.043886553 -0.0052945795
-0.034759268 0.045000061 -0.0049527758
-0.024743596 0.045000061 -0.0048299539
-0.014995661 0.045000061 -0.0049525718
-0.0050496603 0.045000061 -0.0049361372
0.0050218417 0.045000061 -0.0049043996
0.015169027 0.045000061 -0.0050131017
0.024775354 0.045000061 -0.005028673
0.035160426 0.045000061 -0.0048807054
0.042498283 0.045000054 -0.0046499479
-0.045000058 -0.042316105 0.0050278837
-0.045000061 -0.034936372 0.004989468
-0.045000061 -0.025036352 0.0051108021
-0.045000061 -0.014924298 0.0052205548
-0.045000061 -0.005142353 0.0049460339
-0.045000061 0.0051418929 0.0049933782
-0.045000061 0.014916441 0.0048614526
-0.045000061 0.025280096 0.0051689576
-0.045000061 0.034985095 0.0051619685
-0.043831307 0.043606415 0.0054631294
-0.035154235 0.045000061 0.0050892727
-0.025006253 0.045000061 0.0048035602
-0.015003068 0.045000061 0.004957845
-0.0046129865 0.045000061 0.0049748397
0.0052153375 0.045000061 0.0052057654
0.015094791 0.045000061 0.0050484864
0.024964975 0.045000061 0.0050389245
0.035088565 0.045000065 0.0051093982
0.04243708 0.045000054 0.0048814621
-0.045000054 -0.042563498 0.014510589
-0.045000061 -0.035077717 0.015129359
-0.045000061 -0.02506572 0.01486005
-0.045000061 -0.014937825 0.014891769
-0.045000061 -0.0050491733 0.014954291
-0.045000061 0.0052643777 0.014880016
-0.045000061 0.015016214 0.014994754
-0.045000061 0.024959769 0.014894005
-0.045000061 0.035091661 0.015047027
-0.043732729 0.043749124 0.015129698
-0.034957632 0.045000061 0.014880423
-0.024735631 0.045000065 0.014890899
-0.014717976 0.045000061 0.015166158
-0.0047116238 0.045000065 0.014778033
0.0051246355 0.045000061 0.014833332
0.015172119 0.045000065 0.015028112
0.024813382 0.045000065 0.015093727
0.034797113 0.045000061 0.015205977
0.042650536 0.045000054 0.015202473
-0.045000054 -0.042390849 0.025014715
-0.045000061 -0.035077289 0.024775391
-0.045000061 -0.025032483 0.025175061
-0.045000061 -0.015028961 0.025050418
-0.045000061 -0.0050499327 0.025082678
-0.045000061 0.0049183466 0.025261281
-0.045000061 0.014779204 0.024966236
-0.045000065 0.025065167 0.025150061
-0.045000065 0.035146866 0.025032846
-0.043760952 0.043744922 0.02494704
-0.035092123 0.045000061 0.025087778
-0.024979508 0.045000061 0.025057802
-0.015232407 0.045000061 0.024772855
-0.0050272937 0.045000061 0.025040051
0.0050974088 0.045000065 0.025070569
0.015068151 0.045000061 0.025172774
0.025013492 0.045000061 0.024680553
0.035066076 0.045000065 0.024922989
0.042589448 0.04500005 0.025279781
-0.045000054 -0.042451411 0.03517561
-0.045000065 -0.035142113 0.034961462
-0.045000061 -0.024827385 0.034992993
-0.045000061 -0.015038788 0.03503548
-0.045000061 -0.0050847726 0.035006933
-0.045000061 0.0050778138 0.034987826
-0.045000065 0.014850752 0.035088636
-0.045000061 0.025256217 0.034870382
-0.045000061 0.035161264 0.034882423
-0.043735243 0.043814193 0.034980174
-0.034960873 0.045000061 0.034848075
-0.025262697 0.045000061 0.035404559
-0.014837503 0.045000061 0.035305928
-0.0048674885 0.045000061 0.034888096
0.0053894576 0.045000061 0.035253216
0.015108808 0.045000061 0.034829162
0.024816563 0.045000061 0.035048332
0.034904536 0.045000061 0.034984097
0.042625487 0.045000054 0.035016138
-0.043708041 -0.042274754 0.043856461
-0.034886926 -0.042401675 0.045000054
-0.024940223 -0.04272401 0.04500005
-0.014872612 -0.042442899 0.04500005
-0.0048562959 -0.042443734 0.045000054
0.0050266618 -0.04258994 0.045000054
0.015201291 -0.042390142 0.04500005
0.024592848 -0.04253567 0.045000054
0.034975592 -0.042723726 0.04500005
0.042534735 -0.042590287 0.045000035
-0.043615799 -0.03506925 0.043790765
-0.035102684 -0.035082892 0.045000061
-0.024931703 -0.035223633 0.045000061
-0.014938376 -0.034875661 0.045000061
-0.0050492091 -0.035120238 0.045000061
0.0049109645 -0.035221338 0.045000061
0.015094233 -0.035057563 0.045000061
0.02506754 -0.034828886 0.045000061
0.034998462 -0.03505772 0.045000061
0.042585451 -0.035226867 0.04500005
-0.043787792 -0.024710074 0.043703903
-0.034940116 -0.024885714 0.045000061
-0.024734549 -0.024990026 0.045000061
-0.015122236 -0.02506976 0.045000061
-0.0050727329 -0.025339054 0.045000061
0.0051014302 -0.02503659 0.045000061
0.015009641 -0.02463625 0.045000061
0.024913892 -0.025094545 0.045000061
0.0347206 -0.025183281 0.045000061
0.042476282 -0.025104396 0.045000054
-0.043734983 -0.014949 0.04379927
-0.034971245 -0.015049083 0.045000065
-0.025249749 -0.014846391 0.045000061
-0.014914691 -0.015161051 0.045000061
-0.0048761764 -0.014826423 0.045000061
0.0049522058 -0.014838794 0.045000065
0.014939456 -0.015149645 0.045000061
0.025036316 -0.015196588 0.045000061
0.034762882 -0.015019286 0.045000061
0.04245365 -0.015203089 0.04500005
-0.043707866 -0.0049741385 0.043732785
-0.03510556 -0.0049947407 0.045000065
-0.025455486 -0.0050803092 0.045000061
-0.014960526 -0.005106573 0.045000065
-0.0046640383 -0.0047803824 0.045000061
0.0049462444 -0.0050941743 0.045000061
0.01485434 -0.0050057196 0.045000061
0.025058299 -0.0048591341 0.045000061
0.034967553 -0.0049648425 0.045000061
0.042490203 -0.005069918 0.045000054
-0.043736394 0.0049809841 0.04359052
-0.034890316 0.0050935792 0.045000061
-0.024916295 0.0048861876 0.045000061
-0.015269866 0.0051190788 0.045000061
-0.0048079509 0.0049235597 0.045000061
0.0052865529 0.0049738525 0.045000061
0.015186992 0.0050469716 0.045000061
0.025020467 0.0051350566 0.045000061
0.035046671 0.0045790197 0.045000061
0.042554874 0.0045789219 0.045000054
-0.043925062 0.014941634 0.043686636
-0.035067886 0.014808466 0.045000061
-0.024848815 0.015178429 0.045000061
-0.015045141 0.014884426 0.045000061
-0.0050891032 0.014785818 0.045000061
0.0054271836 0.014911165 0.045000061
0.015168823 0.015062421 0.045000065
0.025281802 0.014593243 0.045000061
0.035188202 0.014762836 0.045000065
0.042395756 0.014678746 0.045000054
-0.04371671 0.025052249 0.043713406
-0.035044376 0.025251118 0.045000061
-0.025212357 0.025013022 0.045000061
-0.014831891 0.025080109 0.045000061
-0.0050270217 0.024950894 0.045000061
0.0051810923 0.025088577 0.045000061
0.014911758 0.025063613 0.045000061
0.024839731 0.025187425 0.045000061
0.03497 0.025074488 0.045000061
0.042508569 0.025170043 0.045000054
-0.043746319 0.035146609 0.043823842
-0.03501568 0.034883708 0.045000061
-0.025312269 0.035022445 0.045000061
-0.014987031 0.034893662 0.045000061
-0.0049883802 0.034954507 0.045000061
0.0048310705 0.034975622 0.045000061
0.014859654 0.034935229 0.045000065
0.025099013 0.035012368 0.045000061
0.034758952 0.0349553 0.045000061
0.042463429 0.034673102 0.04500005
-0.043350272 0.043285452 0.04300727
-0.034884214 0.043757949 0.043669838
-0.025147095 0.04376509 0.043628428
-0.015015633 0.043665785 0.043821391
-0.0051619662 0.043600395 0.043882769
0.0050028539 0.043873604 0.043735713
0.015095565 0.043685682 0.043889638
0.024991503 0.043589145 0.043858498
0.034894466 0.043742765 0.043788437
0.042655468 0.043581326 0.043977983
