# .PCD v0.7 - Point Cloud Data file format
VERSION 0.7
FIELDS x y z
SIZE 4 4 4
TYPE F F F
COUNT 1 1 1
WIDTH 1253
HEIGHT 1
VIEWPOINT 0 0 0 1 0 0 0
POINTS 1253
DATA ascii
-0.031428788 -0.031285439 -0.045000009
-0.02854874 -0.031396773 -0.045000006
-0.026393658 -0.031416073 -0.045000006
-0.02350965 -0.03116776 -0.045000006
-0.02135562 -0.03113099 -0.045000009
-0.018781018 -0.0311928 -0.045000009
-0.016100373 -0.031023907 -0.045000009
-0.014013647 -0.03129673 -0.045000002
-0.011377369 -0.031557065 -0.045000006
-0.0086935861 -0.030767186 -0.044999998
-0.0064942385 -0.031347916 -0.045000006
-0.0039917016 -0.031272676 -0.045000002
-0.00154261 -0.031171538 -0.045000009
0.0012640441 -0.031501994 -0.045000002
0.0036592674 -0.03139152 -0.045000009
0.006029482 -0.030948471 -0.045000006
0.0084180702 -0.031151041 -0.045000006
0.011327915 -0.031023748 -0.045000006
0.01350865 -0.031419873 -0.045000006
0.01658315 -0.031407677 -0.045000009
0.018706024 -0.030967508 -0.045000009
0.021190943 -0.03101049 -0.045000009
0.023737537 -0.031069582 -0.045000009
0.026494237 -0.031196633 -0.045000009
0.028685378 -0.030969283 -0.045000009
0.031292133 -0.031398252 -0.045000006
0.033969868 -0.030857129 -0.045000002
0.036251388 -0.031697892 -0.045000006
0.038479459 -0.031059692 -0.045000006
0.041254044 -0.031094404 -0.045000009
0.044098929 -0.031083899 -0.045000009
0.045000002 -0.031078387 -0.043787725
-0.045000006 -0.028792355 -0.043743562
-0.044560798 -0.028612625 -0.044301771
-0.041130852 -0.028621715 -0.045000006
-0.038587175 -0.028554577 -0.045000009
-0.036156576 -0.028713007 -0.045000009
-0.033769324 -0.029022519 -0.045000009
-0.031314425 -0.028572986 -0.045000006
-0.029062867 -0.028205564 -0.045000006
-0.026013836 -0.02878619 -0.045000009
-0.023984633 -0.028799428 -0.045000009
-0.021391449 -0.028746214 -0.045000009
-0.019059923 -0.028961817 -0.045000009
-0.016154794 -0.028741121 -0.045000006
-0.013747173 -0.028970441 -0.045000009
-0.011074236 -0.028688796 -0.045000009
-0.0086950324 -0.028728755 -0.045000002
-0.0063079763 -0.02848386 -0.045000002
-0.0035565044 -0.028640263 -0.045000002
-0.0011587044 -0.028481798 -0.045000002
0.0011122007 -0.028826116 -0.045000006
0.0031688153 -0.028798338 -0.045000009
0.0064270785 -0.028475974 -0.045000009
0.0085062934 -0.028859837 -0.045000002
0.010999046 -0.02868226 -0.045000006
0.013794279 -0.028564377 -0.045000009
0.016706022 -0.028956534 -0.045000006
0.018593678 -0.028928936 -0.045000009
0.021324901 -0.028595511 -0.045000009
0.023667015 -0.028537057 -0.045000006
0.026358455 -0.028493319 -0.045000009
0.028974557 -0.028588997 -0.045000002
0.030632082 -0.028607419 -0.045000002
0.033596102 -0.028391989 -0.045000002
0.036204994 -0.028830146 -0.045000002
0.038606755 -0.028422477 -0.045000009
0.041405689 -0.028848639 -0.045000002
0.043686625 -0.028675361 -0.045000006
0.045000009 -0.028950255 -0.043935243
-0.044387594 -0.026175447 -0.044337042
-0.041514106 -0.026349448 -0.045000009
-0.038892273 -0.026370993 -0.045000009
-0.036174405 -0.026287679 -0.045000009
-0.033479594 -0.026625266 -0.045000006
-0.031315286 -0.026792798 -0.044999998
-0.028739175 -0.026242197 -0.045000006
-0.026208984 -0.026121348 -0.045000009
-0.023887057 -0.026194107 -0.045000006
-0.021122389 -0.026406091 -0.045000006
-0.018678004 -0.026330272 -0.045000009
-0.01618517 -0.026547113 -0.045000009
-0.013950619 -0.026373906 -0.045000009
-0.011319006 -0.026357777 -0.045000009
-0.0083816703 -0.025776988 -0.045000006
-0.0061620967 -0.025924193 -0.045000009
-0.0039926544 -0.026347002 -0.045000009
-0.0014595691 -0.026035363 -0.045000002
0.0011888386 -0.026166698 -0.045000002
0.0036915664 -0.02619506 -0.045000009
0.0061392444 -0.026163219 -0.045000009
0.0089325076 -0.026688514 -0.045000009
0.01095839 -0.026238715 -0.045000009
0.013657861 -0.025960635 -0.045000006
0.016269263 -0.025965083 -0.045000009
0.018691 -0.025904493 -0.045000002
0.021533549 -0.026384119 -0.045000009
0.023779759 -0.026017604 -0.045000002
0.026493184 -0.026974697 -0.045000002
0.02895974 -0.026442124 -0.045000002
0.031218067 -0.025982723 -0.045000006
0.033779979 -0.026128344 -0.045000002
0.036354747 -0.026227731 -0.045000006
0.0386272 -0.026091944 -0.045000006
0.041320886 -0.026321454 -0.045000006
0.044022758 -0.026129736 -0.045000002
0.045000009 -0.025998103 -0.04369735
-0.044208359 -0.02361124 -0.044633433
-0.040944953 -0.023837317 -0.045000009
-0.038777664 -0.023745373 -0.045000009
-0.036263175 -0.024109682 -0.045000006
-0.034019835 -0.02377644 -0.045000009
-0.030866215 -0.023772707 -0.045000002
-0.028931884 -0.023795754 -0.045000009
-0.026073068 -0.023747746 -0.045000009
-0.02427808 -0.023625845 -0.045000002
-0.021342279 -0.023882568 -0.045000009
-0.01871207 -0.023791891 -0.045000009
-0.015956562 -0.023609085 -0.045000006
-0.013961049 -0.023750432 -0.045000009
-0.010987853 -0.023917438 -0.045000002
-0.0085839871 -0.023998035 -0.045000002
-0.0058665299 -0.023759644 -0.045000002
-0.0034151927 -0.023879308 -0.045000006
-0.0011055451 -0.02374645 -0.045000002
0.0013088234 -0.023777233 -0.045000006
0.0035939224 -0.023509374 -0.045000009
0.0062714345 -0.023641806 -0.045000009
0.0087075168 -0.023446035 -0.045000009
0.011276318 -0.023834996 -0.045000009
0.013964949 -0.023710519 -0.045000009
0.016181573 -0.023530757 -0.045000009
0.018814057 -0.023626203 -0.045000009
0.021516668 -0.023508606 -0.045000009
0.023601001 -0.023970081 -0.045000006
0.026244015 -0.02394373 -0.045000006
0.028708985 -0.023713043 -0.045000009
0.030893786 -0.023714572 -0.045000002
0.033949912 -0.023877714 -0.045000009
0.036229935 -0.023600815 -0.045000006
0.038309008 -0.023738874 -0.045000006
0.041273449 -0.023798572 -0.045000006
0.044026829 -0.023828816 -0.044999998
0.045000006 -0.024267999 -0.043642603
-0.045000006 -0.020541484 -0.043350846
-0.044560079 -0.021221302 -0.044364475
-0.040899526 -0.020913839 -0.045000009
-0.038676012 -0.020918626 -0.045000009
-0.036527537 -0.021266785 -0.045000002
-0.033698287 -0.021088941 -0.045000006
-0.03083244 -0.021585573 -0.045000002
-0.02891399 -0.021353526 -0.045000009
-0.026243897 -0.021158569 -0.045000009
-0.023746332 -0.021435564 -0.045000009
-0.021263514 -0.021085642 -0.045000009
-0.018564602 -0.021153653 -0.045000006
-0.01636252 -0.020910731 -0.045000006
-0.013537562 -0.021021664 -0.045000006
-0.011510706 -0.020907631 -0.045000009
-0.0086801853 -0.02107358 -0.045000009
-0.0064146593 -0.021234864 -0.045000006
-0.0038504873 -0.02130731 -0.045000009
-0.0012061797 -0.021398231 -0.045000002
0.0012101204 -0.021194844 -0.045000009
0.0033137123 -0.021283338 -0.045000009
0.0067679444 -0.021270137 -0.045000009
0.0086307349 -0.021227188 -0.045000006
0.011343041 -0.021227978 -0.045000009
0.013617053 -0.021054104 -0.045000006
0.016148843 -0.021476718 -0.045000009
0.018730827 -0.021484278 -0.045000009
0.021505373 -0.021338277 -0.045000009
0.023533229 -0.021486605 -0.045000009
0.026311312 -0.021248953 -0.045000002
0.028838649 -0.021345539 -0.045000009
0.030919187 -0.021145962 -0.045000002
0.033926439 -0.021190852 -0.045000006
0.036020868 -0.021267377 -0.045000006
0.039088886 -0.021485345 -0.045000009
0.041125003 -0.021099495 -0.045000006
0.043987066 -0.020985158 -0.045000006
0.045000006 -0.021244112 -0.043701731
-0.04445754 -0.018564003 -0.044325203
-0.041547436 -0.01862772 -0.045000009
-0.038268771 -0.018716006 -0.045000006
-0.036263831 -0.018784881 -0.045000009
-0.033789162 -0.018885775 -0.045000002
-0.031033065 -0.018595915 -0.045000006
-0.028917646 -0.018528124 -0.045000006
-0.025859289 -0.019034354 -0.045000006
-0.02383394 -0.018637327 -0.045000009
-0.021505382 -0.018560313 -0.045000009
-0.018696165 -0.019115239 -0.045000002
-0.016518164 -0.018719092 -0.045000006
-0.014005248 -0.018895453 -0.044999998
-0.011238602 -0.018629905 -0.045000006
-0.0086709801 -0.01855796 -0.045000006
-0.006035802 -0.018897818 -0.045000009
-0.0036795049 -0.018853875 -0.045000009
-0.0011074774 -0.019080378 -0.045000006
0.0013911298 -0.019078091 -0.045000002
0.003867276 -0.018580716 -0.045000009
0.006215353 -0.018778335 -0.045000009
0.0088353092 -0.018484991 -0.045000009
0.01124206 -0.018659433 -0.045000009
0.014171585 -0.018943928 -0.045000009
0.01642127 -0.018649217 -0.045000009
0.018652722 -0.018630421 -0.045000009
0.021357348 -0.018722296 -0.045000006
0.024177993 -0.018558463 -0.045000006
0.026430603 -0.018734301 -0.045000009
0.02874341 -0.018503437 -0.045000009
0.031541284 -0.018794291 -0.045000009
0.033479385 -0.018734915 -0.045000006
0.036349446 -0.018786503 -0.044999998
0.038324356 -0.01879668 -0.045000006
0.04158726 -0.019020816 -0.045000002
0.043669127 -0.01846811 -0.045000002
0.045000013 -0.018617116 -0.043931473
-0.044482678 -0.016365891 -0.044341423
-0.041151453 -0.016116312 -0.045000009
-0.038601976 -0.015809301 -0.045000009
-0.036330886 -0.016281186 -0.045000009
-0.03362035 -0.016429935 -0.045000009
-0.031041911 -0.016478019 -0.045000002
-0.028744308 -0.01603974 -0.045000009
-0.026207324 -0.016588772 -0.045000009
-0.023530362 -0.016201666 -0.045000002
-0.021292793 -0.016300058 -0.045000009
-0.019024322 -0.016129659 -0.045000006
-0.016766911 -0.01620828 -0.045000006
-0.013569553 -0.016161568 -0.045000009
-0.011453178 -0.015947161 -0.045000013
-0.0085927537 -0.016311428 -0.045000009
-0.0061986707 -0.016303275 -0.045000009
-0.0038243681 -0.016235674 -0.045000006
-0.0010019623 -0.016421719 -0.045000006
0.0013343219 -0.016427839 -0.045000009
0.0039677164 -0.016019003 -0.045000009
0.0065731672 -0.01644342 -0.045000009
0.0085712094 -0.016317029 -0.045000002
0.011208334 -0.015897213 -0.045000009
0.013716711 -0.016343392 -0.045000006
0.016447039 -0.016281204 -0.045000002
0.018673655 -0.016206138 -0.045000009
0.02143223 -0.01617709 -0.045000006
0.023580814 -0.015796127 -0.045000006
0.026286697 -0.016145824 -0.045000006
0.028690176 -0.016266759 -0.045000009
0.03126087 -0.016088827 -0.045000013
0.033827249 -0.016274145 -0.045000009
0.036394529 -0.016499804 -0.045000006
0.038814947 -0.016637892 -0.045000006
0.041143119 -0.016396534 -0.045000009
0.04407588 -0.016310377 -0.045000009
0.045000009 -0.016386054 -0.043419495
-0.044496931 -0.013483889 -0.044588968
-0.041175306 -0.013556978 -0.045000002
-0.038904227 -0.013744688 -0.045000009
-0.036402959 -0.014017705 -0.045000002
-0.033806756 -0.013734774 -0.045000009
-0.031790614 -0.013500563 -0.045000006
-0.029446116 -0.013840499 -0.045000006
-0.02662308 -0.013711547 -0.045000009
-0.023680171 -0.013707988 -0.044999998
-0.021367207 -0.013633177 -0.045000009
-0.018769274 -0.013402609 -0.045000002
-0.016326629 -0.013652043 -0.045000009
-0.013599462 -0.013506266 -0.045000002
-0.011146992 -0.01370666 -0.045000009
-0.0086939195 -0.014004057 -0.045000006
-0.0059899455 -0.013798739 -0.045000006
-0.0036096191 -0.01379462 -0.045000009
-0.0013769307 -0.014176589 -0.045000006
0.0011152021 -0.013664925 -0.045000006
0.0034208987 -0.013848197 -0.045000009
0.0061480012 -0.01394746 -0.045000002
0.0086017065 -0.013968641 -0.045000002
0.011254003 -0.013883492 -0.045000006
0.013642238 -0.01367186 -0.045000006
0.016327618 -0.013549659 -0.045000009
0.018513829 -0.013789925 -0.045000009
0.021130661 -0.013761058 -0.045000009
0.023976609 -0.013572874 -0.044999998
0.026357289 -0.013603762 -0.045000006
0.028750924 -0.013901865 -0.045000009
0.0311909 -0.013820054 -0.045000009
0.033958938 -0.014077459 -0.045000009
0.036244538 -0.013820367 -0.045000009
0.038597342 -0.013979536 -0.045000006
0.041073509 -0.013847442 -0.045000002
0.043903731 -0.013998096 -0.045000009
0.045000009 -0.013778628 -0.043793704
-0.044551417 -0.011225548 -0.044203259
-0.041145273 -0.011310831 -0.045000009
-0.038608517 -0.01111689 -0.045000009
-0.036317114 -0.011144343 -0.045000009
-0.033433873 -0.011093016 -0.045000006
-0.031158911 -0.011363418 -0.045000006
-0.028706789 -0.011092725 -0.045000006
-0.026346851 -0.011140405 -0.045000006
-0.023830535 -0.011596697 -0.045000006
-0.02089525 -0.011199761 -0.045000006
-0.018619331 -0.011243843 -0.045000009
-0.016224124 -0.011218974 -0.045000009
-0.013921523 -0.010895001 -0.045000009
-0.011416639 -0.011088431 -0.044999998
-0.0088118603 -0.011243786 -0.045000006
-0.0059932573 -0.011041404 -0.045000009
-0.003734773 -0.011001614 -0.045000009
-0.00083138864 -0.011480576 -0.045000006
0.0010804258 -0.010715817 -0.045000006
0.0036519098 -0.011396841 -0.045000009
0.0060939025 -0.011326993 -0.045000009
0.0088920202 -0.01123367 -0.045000009
0.011055726 -0.011419713 -0.045000006
0.013962885 -0.011109455 -0.045000009
0.016292483 -0.011132896 -0.045000006
0.018580373 -0.011410086 -0.045000009
0.021665817 -0.010856968 -0.045000006
0.023868557 -0.011545654 -0.045000009
0.026075512 -0.011520279 -0.045000006
0.02867566 -0.011278452 -0.044999998
0.031133702 -0.011688879 -0.045000006
0.033673469 -0.011183497 -0.045000002
0.036241565 -0.011149251 -0.045000006
0.03883557 -0.01130398 -0.045000006
0.041546889 -0.011154998 -0.045000006
0.04346668 -0.011172472 -0.045000009
0.045000009 -0.010873954 -0.043643124
-0.044295017 -0.0089058271 -0.04450896
-0.041410007 -0.0087001482 -0.045000009
-0.038573548 -0.008584572 -0.045000002
-0.035993859 -0.0090150265 -0.045000002
-0.033812761 -0.0089786984 -0.045000009
-0.031281654 -0.008472248 -0.045000009
-0.028474918 -0.0086544938 -0.044999998
-0.026192131 -0.0087352013 -0.045000009
-0.023682751 -0.0087252883 -0.045000006
-0.021300178 -0.00851392 -0.045000009
-0.018391985 -0.0087942658 -0.045000002
-0.015978834 -0.0090078218 -0.045000009
-0.013972709 -0.0087861232 -0.045000009
-0.01126851 -0.0091280704 -0.045000009
-0.0086115543 -0.0087855179 -0.045000009
-0.0063232253 -0.0088013643 -0.045000006
-0.0040519154 -0.0087056197 -0.045000009
-0.0012796459 -0.0081569571 -0.045000006
0.0012779941 -0.0085057085 -0.045000009
0.0037305211 -0.008972236 -0.045000009
0.0065603871 -0.0088967625 -0.045000002
0.0086331619 -0.0088003222 -0.045000002
0.011132081 -0.0084913755 -0.045000009
0.013522471 -0.0087761376 -0.045000006
0.016032357 -0.0092247622 -0.045000006
0.018834418 -0.0088402508 -0.045000009
0.021077143 -0.008717481 -0.045000006
0.023844179 -0.0085425377 -0.045000009
0.026311738 -0.0089070946 -0.045000006
0.029038951 -0.0088578723 -0.045000009
0.031019501 -0.0086317975 -0.045000009
0.033744164 -0.0086505767 -0.045000013
0.036442883 -0.0087284418 -0.045000006
0.038873278 -0.0087553849 -0.045000009
0.041424979 -0.008433436 -0.045000002
0.043762553 -0.0090580108 -0.045000006
0.045000009 -0.0088107698 -0.043874525
-0.04432264 -0.0063922773 -0.044494897
-0.041109607 -0.0059366073 -0.045000002
-0.038275376 -0.006041307 -0.045000002
-0.036362845 -0.00627437 -0.045000009
-0.03377093 -0.0059953863 -0.045000006
-0.031542171 -0.0060998444 -0.045000009
-0.028860122 -0.0063447948 -0.045000009
-0.025825365 -0.0058281892 -0.045000006
-0.023785818 -0.0064565931 -0.045000006
-0.021691764 -0.0061854692 -0.045000006
-0.018446065 -0.0064603379 -0.045000009
-0.015995817 -0.0062905112 -0.045000009
-0.013883426 -0.0062988251 -0.045000009
-0.011534128 -0.0064936257 -0.045000009
-0.0089757023 -0.0064648627 -0.045000009
-0.0060978979 -0.0064371396 -0.045000002
-0.0037535268 -0.0060645607 -0.045000009
-0.0013855573 -0.0061497823 -0.045000006
0.00079332042 -0.0064957696 -0.045000006
0.0039723557 -0.0063552316 -0.045000009
0.0060150605 -0.0062163305 -0.045000009
0.0085682096 -0.006042365 -0.045000009
0.011349435 -0.0059211296 -0.045000009
0.013954995 -0.0064057005 -0.045000009
0.016462799 -0.0065431478 -0.045000002
0.018627018 -0.0056477706 -0.045000006
0.021094808 -0.0060431529 -0.045000009
0.023685377 -0.0061995452 -0.045000009
0.026013136 -0.0062514776 -0.045000009
0.028620405 -0.0063761347 -0.045000009
0.031259816 -0.0062695849 -0.045000009
0.033808745 -0.0065106205 -0.045000009
0.036105722 -0.0064777518 -0.045000009
0.038654428 -0.0063773147 -0.045000009
0.041343443 -0.0063295281 -0.045000009
0.043997459 -0.0061821193 -0.045000006
0.045000002 -0.0061873039 -0.043978527
-0.044495512 -0.0039342954 -0.044146061
-0.041555505 -0.0036657779 -0.045000006
-0.038866546 -0.0033885727 -0.045000009
-0.036139581 -0.0038747147 -0.045000009
-0.03406883 -0.0037488742 -0.045000009
-0.031330448 -0.0033769172 -0.045000002
-0.028961124 -0.0043200725 -0.044999998
-0.026303455 -0.0036745097 -0.045000009
-0.023975296 -0.0033912321 -0.045000009
-0.021331929 -0.0037336263 -0.045000009
-0.018862242 -0.0037634966 -0.045000009
-0.016480597 -0.0036233577 -0.045000009
-0.013898302 -0.0040432266 -0.045000006
-0.011081329 -0.0037349244 -0.045000009
-0.0087154126 -0.0035342346 -0.045000009
-0.0063096625 -0.0038255586 -0.045000006
-0.0036786795 -0.0037516893 -0.045000006
-0.0013687303 -0.0038911963 -0.045000006
0.0014202285 -0.0038837984 -0.045000006
0.0041569155 -0.0040435246 -0.045000006
0.00697556 -0.0034875097 -0.045000002
0.0088435626 -0.0038429566 -0.045000006
0.011676548 -0.0038330462 -0.045000009
0.013567743 -0.0040484238 -0.045000006
0.016195133 -0.0040532085 -0.045000002
0.018554594 -0.0037270684 -0.045000006
0.021337962 -0.0038732365 -0.045000009
0.023628384 -0.0039565316 -0.045000006
0.026516672 -0.0039855633 -0.045000002
0.028804669 -0.0036383569 -0.045000006
0.03110154 -0.0032738168 -0.045000006
0.034257967 -0.0038744432 -0.045000006
0.035919756 -0.0034116313 -0.045000002
0.038652588 -0.0039910423 -0.045000009
0.041335814 -0.0035579954 -0.045000006
0.04404635 -0.0036192548 -0.045000009
0.045000002 -0.0038456048 -0.043204997
-0.044283625 -0.0012752202 -0.044412125
-0.041233383 -0.0012048583 -0.045000006
-0.038330596 -0.0012464883 -0.045000006
-0.036068276 -0.0012143739 -0.045000002
-0.033931207 -0.0015162186 -0.045000009
-0.030741557 -0.0011966859 -0.045000006
-0.028837295 -0.0011331961 -0.045000009
-0.026029844 -0.0012077501 -0.045000009
-0.023594668 -0.001263136 -0.045000009
-0.021341007 -0.0013172374 -0.045000009
-0.018519556 -0.0010665166 -0.045000009
-0.016177095 -0.00093273667 -0.045000006
-0.013762638 -0.0011485331 -0.045000009
-0.011320032 -0.0011966518 -0.045000009
-0.0087191351 -0.0011767572 -0.045000009
-0.006366238 -0.0010817144 -0.045000009
-0.003815196 -0.0011900894 -0.045000009
-0.001275548 -0.0012578063 -0.045000009
0.0014695749 -0.0011110416 -0.045000002
0.0038913633 -0.001216576 -0.045000009
0.0060955677 -0.001211514 -0.045000009
0.00871184 -0.0012613949 -0.045000009
0.011133236 -0.001176209 -0.045000009
0.013373253 -0.001068246 -0.045000009
0.016250832 -0.0010323598 -0.045000009
0.019007683 -0.0012524226 -0.045000002
0.02129839 -0.0011582627 -0.045000002
0.023604345 -0.001506536 -0.045000009
0.02614871 -0.0011394972 -0.045000009
0.028607139 -0.0013663878 -0.045000009
0.030918717 -0.00094337587 -0.045000006
0.033567384 -0.00129811 -0.045000002
0.036258198 -0.0017942234 -0.045000002
0.0387435 -0.0010574987 -0.045000009
0.041259315 -0.00102635 -0.045000006
0.043764889 -0.0012361851 -0.045000009
0.045000009 -0.0010727341 -0.04389229
-0.044473849 0.0012927266 -0.044075605
-0.041186448 0.0013313413 -0.045000009
-0.03850792 0.0012831148 -0.045000002
-0.036303483 0.001440179 -0.045000009
-0.03377768 0.0012144134 -0.045000006
-0.031382278 0.0007661134 -0.045000002
-0.028715309 0.0012612371 -0.045000009
-0.02629343 0.0013959585 -0.045000009
-0.023666829 0.0010199401 -0.045000002
-0.021153398 0.0011309659 -0.045000006
-0.018780494 0.0013723854 -0.045000009
-0.016153229 0.0014539445 -0.045000006
-0.013900881 0.0011433826 -0.045000002
-0.011348085 0.0015229427 -0.045000009
-0.0088810455 0.0012378137 -0.045000009
-0.0060573299 0.0012697163 -0.045000006
-0.003990083 0.0013083471 -0.045000006
-0.0013705157 0.0012080255 -0.045000002
0.0015716878 0.0011283768 -0.045000009
0.0038803148 0.0012387449 -0.045000009
0.0065427176 0.0010582447 -0.045000009
0.0088932738 0.0015850931 -0.045000009
0.011182083 0.0012410573 -0.045000009
0.014173426 0.0011102086 -0.045000006
0.016419647 0.001292235 -0.045000009
0.01855213 0.0011798607 -0.045000009
0.021184003 0.0014310257 -0.045000002
0.023477104 0.0012339312 -0.045000009
0.026244793 0.0012340627 -0.045000006
0.029032784 0.00096018799 -0.045000006
0.031348124 0.0010830134 -0.045000009
0.033642318 0.0015252641 -0.045000009
0.0363621 0.0017109192 -0.045000006
0.038979385 0.0012058448 -0.045000009
0.041177418 0.0012310121 -0.045000009
0.043590825 0.0013706527 -0.045000002
0.045000009 0.0012819369 -0.043870419
-0.044355001 0.0036705169 -0.044417687
-0.041444529 0.0042968057 -0.045000006
-0.038936339 0.0035171108 -0.045000009
-0.036048345 0.0038775487 -0.045000009
-0.033544045 0.0041108024 -0.045000002
-0.031199519 0.0039598951 -0.045000002
-0.02881626 0.003687449 -0.045000009
-0.02605688 0.0037297837 -0.044999998
-0.02365146 0.0035688141 -0.045000009
-0.021210033 0.0035620851 -0.045000006
-0.018629303 0.0038273695 -0.045000002
-0.015863353 0.0037202646 -0.045000009
-0.013761464 0.0038383675 -0.045000006
-0.011313457 0.0033827429 -0.045000002
-0.0085961064 0.0037703263 -0.045000009
-0.0061796503 0.0039676027 -0.045000006
-0.003638583 0.0036946642 -0.045000002
-0.0012985269 0.0036584216 -0.045000009
0.0010523847 0.0037402539 -0.045000006
0.0033725894 0.0039788964 -0.045000006
0.0067266291 0.0036797919 -0.045000009
0.0086134989 0.0032963909 -0.045000006
0.011372308 0.0041520568 -0.045000009
0.013785361 0.0034912452 -0.045000006
0.016358392 0.0039305659 -0.045000006
0.018960394 0.0035022227 -0.045000009
0.021328697 0.0036939813 -0.045000009
0.023646172 0.0040950906 -0.045000009
0.025984477 0.004021144 -0.045000009
0.028840702 0.0034788568 -0.045000009
0.031105909 0.0039107269 -0.045000009
0.033966757 0.0037469319 -0.045000009
0.035869382 0.0039644316 -0.045000006
0.038692534 0.0039612446 -0.045000009
0.041424599 0.0036261203 -0.045000002
0.043686293 0.0037662238 -0.045000006
0.045000006 0.0037901541 -0.043698858
-0.044480503 0.0061954469 -0.044402756
-0.041236404 0.0059719994 -0.045000006
-0.038481317 0.0060197143 -0.045000009
-0.036288746 0.0059908903 -0.045000009
-0.03376361 0.0063128513 -0.045000009
-0.031213248 0.0062659173 -0.045000006
-0.028985035 0.0062586395 -0.045000009
-0.026144467 0.0063391072 -0.045000006
-0.023779929 0.0058543384 -0.045000009
-0.021420175 0.0064089927 -0.045000009
-0.018486042 0.0062660305 -0.045000002
-0.015876137 0.0066127805 -0.045000002
-0.013189318 0.0060702427 -0.045000002
-0.011431392 0.0064320881 -0.045000006
-0.0087790499 0.0063605779 -0.045000009
-0.0061792079 0.0063731209 -0.045000006
-0.0039138594 0.0059714522 -0.045000002
-0.0015298375 0.0064368695 -0.045000009
0.0010171396 0.0062938184 -0.045000006
0.0040706275 0.0064885938 -0.044999998
0.0063057863 0.0064057996 -0.045000009
0.0086640185 0.0062332284 -0.045000006
0.01136932 0.0064354334 -0.045000009
0.013536591 0.0061622653 -0.045000009
0.016570197 0.0063533275 -0.045000006
0.018868472 0.0060784351 -0.045000006
0.02116775 0.006194721 -0.045000006
0.023773583 0.006138952 -0.045000006
0.026361287 0.0062453351 -0.045000006
0.028698137 0.0060625486 -0.045000006
0.031395875 0.0061862334 -0.045000009
0.033559293 0.0064457878 -0.045000009
0.035974741 0.0061452296 -0.045000009
0.03891658 0.0062796213 -0.045000002
0.041564278 0.0063021667 -0.045000009
0.04383079 0.0060090343 -0.045000009
0.045000002 0.0065263519 -0.043835856
-0.044382997 0.0085401572 -0.044560868
-0.041080046 0.0087816995 -0.045000009
-0.038896974 0.0087091299 -0.045000009
-0.03626813 0.0088807214 -0.045000009
-0.03373326 0.0087094959 -0.045000009
-0.031342264 0.0085452599 -0.044999998
-0.028902488 0.008687661 -0.045000006
-0.026280032 0.0085182777 -0.045000006
-0.023581702 0.0090181092 -0.045000009
-0.021230577 0.008749526 -0.045000009
-0.018563731 0.0090123471 -0.045000009
-0.016586257 0.0087713776 -0.045000009
-0.013511972 0.0089481194 -0.045000009
-0.011240264 0.0088827489 -0.045000009
-0.0088604521 0.0085614212 -0.045000009
-0.0063456814 0.0091903806 -0.045000009
-0.0038065186 0.0086564636 -0.045000006
-0.00095954112 0.0085311597 -0.045000009
0.0011157747 0.0088793756 -0.045000009
0.0036951324 0.0084906258 -0.045000009
0.0061713667 0.0087998956 -0.045000009
0.0087632332 0.0092089996 -0.045000009
0.011510158 0.0088157039 -0.045000006
0.014014072 0.008674195 -0.045000006
0.016093912 0.008396633 -0.045000009
0.018586347 0.0091499109 -0.045000006
0.02073478 0.0084773181 -0.045000002
0.023510337 0.0090302126 -0.045000006
0.026081998 0.0088490993 -0.045000009
0.028906167 0.0087416517 -0.045000006
0.031039324 0.0087136179 -0.045000009
0.033985846 0.0089758532 -0.045000002
0.036058877 0.0085347751 -0.045000009
0.038729478 0.0088674445 -0.045000009
0.041467443 0.0087051708 -0.045000009
0.043901589 0.0089993905 -0.045000006
0.045000009 0.0087522157 -0.043884415
-0.044254072 0.011456667 -0.044181034
-0.041266941 0.011291255 -0.045000006
-0.038971901 0.011330437 -0.045000006
-0.035785731 0.011217597 -0.045000006
-0.033509392 0.011229173 -0.045000006
-0.031530794 0.01132278 -0.045000002
-0.028637404 0.01138832 -0.045000006
-0.026734343 0.011368237 -0.045000006
-0.023622172 0.011489112 -0.045000006
-0.021435179 0.01114885 -0.045000009
-0.018395673 0.011195395 -0.045000002
-0.016610421 0.011618779 -0.045000006
-0.013933683 0.011243377 -0.045000009
-0.011407669 0.01162566 -0.045000009
-0.0085150963 0.011358072 -0.044999998
-0.0061988756 0.011380001 -0.045000006
-0.003871161 0.0110143 -0.045000009
-0.0010502533 0.011179665 -0.045000006
0.0013912281 0.011120424 -0.045000009
0.0035931203 0.011500866 -0.045000009
0.0061330888 0.011022979 -0.045000006
0.0081648277 0.011252415 -0.045000006
0.011322243 0.010927259 -0.045000009
0.013458107 0.011392945 -0.045000006
0.016247829 0.011460251 -0.045000006
0.018422879 0.011127406 -0.045000006
0.021710558 0.011714231 -0.045000009
0.023789708 0.011421597 -0.045000009
0.026408751 0.011703443 -0.045000009
0.028577926 0.011730102 -0.045000002
0.031173738 0.011391557 -0.045000009
0.033702876 0.011059323 -0.045000009
0.036254495 0.011196512 -0.045000002
0.038593259 0.011211941 -0.045000009
0.04138102 0.011076319 -0.045000009
0.043665476 0.011244074 -0.045000009
0.045000006 0.011385537 -0.043789499
-0.04428719 0.013807089 -0.044465479
-0.041246038 0.013818546 -0.045000009
-0.038429853 0.013796599 -0.045000009
-0.036313266 0.013996228 -0.045000009
-0.033825744 0.013521937 -0.045000009
-0.031318877 0.013577813 -0.045000002
-0.028608153 0.013394608 -0.045000009
-0.026167378 0.013298553 -0.045000006
-0.024037207 0.013797643 -0.045000002
-0.021330133 0.013726165 -0.045000009
-0.01863594 0.014022017 -0.045000009
-0.016199706 0.013633902 -0.045000006
-0.01399874 0.013896632 -0.045000006
-0.011443774 0.013785591 -0.045000009
-0.0087545719 0.014072402 -0.045000009
-0.0061902707 0.013429016 -0.045000009
-0.0040393472 0.013476318 -0.045000009
-0.0014924109 0.013983393 -0.045000009
0.0012953411 0.013878128 -0.045000009
0.0043218327 0.013577797 -0.045000006
0.0063934242 0.013510642 -0.045000006
0.008869837 0.013706286 -0.045000002
0.011354119 0.013977599 -0.045000009
0.013678495 0.013783089 -0.045000006
0.016042573 0.013826737 -0.045000009
0.018695148 0.013747291 -0.045000009
0.021436347 0.013637451 -0.045000006
0.023892445 0.01400026 -0.045000009
0.026057953 0.013832489 -0.045000009
0.028671019 0.013829648 -0.045000002
0.031311609 0.013195319 -0.045000002
0.03389943 0.013324577 -0.045000002
0.035920024 0.013550529 -0.045000009
0.038676843 0.014013482 -0.045000009
0.04143228 0.01379213 -0.045000009
0.04357003 0.013720158 -0.045000002
0.045000009 0.013646653 -0.043709211
-0.044268455 0.016125573 -0.044580389
-0.041144699 0.016311862 -0.045000002
-0.038914993 0.016190888 -0.045000006
-0.036446027 0.016116709 -0.045000009
-0.033634081 0.016318697 -0.045000009
-0.03092964 0.016327225 -0.045000002
-0.029191406 0.016252913 -0.045000006
-0.026537629 0.016582949 -0.045000009
-0.023713415 0.016292781 -0.045000006
-0.020769363 0.015970925 -0.045000002
-0.018751446 0.016195552 -0.045000009
-0.016408177 0.016128728 -0.045000009
-0.013807037 0.015764002 -0.045000002
-0.011279006 0.015836449 -0.045000009
-0.0086825965 0.016097713 -0.045000006
-0.0060503297 0.016732793 -0.045000006
-0.0038270063 0.016846363 -0.045000006
-0.0014126202 0.016353397 -0.044999998
0.0012878847 0.0161609 -0.045000006
0.0036303068 0.016489604 -0.045000006
0.0058039469 0.01632593 -0.045000006
0.0088210832 0.016042804 -0.045000009
0.010994655 0.016394179 -0.045000009
0.013822254 0.016518513 -0.045000009
0.015981037 0.016068827 -0.045000009
0.018790955 0.016246339 -0.045000006
0.021461826 0.016217666 -0.045000009
0.023961157 0.016011717 -0.045000009
0.026815593 0.016419576 -0.045000006
0.029061275 0.015933935 -0.045000002
0.031007193 0.016488824 -0.045000006
0.034047417 0.016001236 -0.045000006
0.036167797 0.016281517 -0.045000009
0.038527396 0.016204573 -0.045000009
0.041632466 0.016061001 -0.045000006
0.043380737 0.016354317 -0.045000002
0.045000006 0.016436663 -0.043756545
-0.044331536 0.018645378 -0.044553962
-0.04157716 0.01880358 -0.045000009
-0.038780849 0.018681066 -0.045000002
-0.036246289 0.018906914 -0.045000009
-0.033586323 0.018573452 -0.045000006
-0.030984428 0.018866099 -0.045000009
-0.028629947 0.018846096 -0.045000009
-0.025762305 0.01904276 -0.045000009
-0.02369941 0.018554037 -0.045000006
-0.021284288 0.018715231 -0.045000009
-0.018747335 0.018930126 -0.045000009
-0.016416898 0.018542422 -0.045000009
-0.013778595 0.018851163 -0.045000009
-0.011244406 0.018746249 -0.045000009
-0.0089704981 0.01879091 -0.044999998
-0.0062149898 0.018549759 -0.045000009
-0.0037620037 0.018630989 -0.045000009
-0.0014068381 0.018493157 -0.045000009
0.0013467374 0.018784128 -0.045000009
0.003874846 0.018758522 -0.045000009
0.0066452953 0.018601857 -0.045000006
0.0088219149 0.018666407 -0.045000002
0.011440989 0.018944515 -0.045000009
0.013656776 0.01866018 -0.045000009
0.015920198 0.018897938 -0.045000006
0.018647302 0.018485557 -0.045000009
0.021737171 0.018913584 -0.045000009
0.023645455 0.018853115 -0.045000009
0.026440462 0.018848605 -0.045000006
0.028765196 0.018668748 -0.045000002
0.031485483 0.018696604 -0.045000006
0.033590537 0.018508587 -0.045000009
0.036401734 0.018595532 -0.045000009
0.038883749 0.01869007 -0.045000009
0.041213967 0.018878506 -0.045000009
0.043761738 0.018298008 -0.045000002
0.045000009 0.01886029 -0.043959633
-0.044335593 0.02116303 -0.044225719
-0.041391604 0.021479772 -0.044999998
-0.038809296 0.021102466 -0.045000009
-0.036493197 0.02148984 -0.045000006
-0.0336322 0.021150535 -0.045000009
-0.03125624 0.021180674 -0.045000009
-0.028693438 0.021242533 -0.045000002
-0.025717648 0.021190932 -0.045000002
-0.02350603 0.021014335 -0.045000009
-0.021256877 0.021246413 -0.045000009
-0.018803312 0.02147641 -0.045000006
-0.016089465 0.021474296 -0.045000009
-0.013907652 0.021124538 -0.045000009
-0.011101534 0.02098926 -0.045000009
-0.0087162042 0.021404762 -0.045000009
-0.0065242955 0.020875085 -0.045000009
-0.0035641468 0.021248035 -0.045000006
-0.0010875345 0.02107567 -0.045000009
0.0011713842 0.021324458 -0.045000009
0.0035539048 0.021087468 -0.045000009
0.0065573021 0.021422306 -0.045000006
0.0088244565 0.021329809 -0.045000009
0.011378715 0.020998005 -0.045000006
0.013828576 0.021184174 -0.045000009
0.016206497 0.021752136 -0.045000002
0.018601939 0.021143625 -0.045000009
0.021233555 0.021416757 -0.045000009
0.023842912 0.021167932 -0.045000009
0.026206216 0.021455817 -0.045000002
0.02890099 0.021495139 -0.045000009
0.031108456 0.021116594 -0.044999998
0.0338393 0.021153694 -0.045000009
0.036377348 0.021398768 -0.045000009
0.0386636 0.02097436 -0.045000002
0.041155674 0.02132359 -0.045000006
0.04359046 0.021366782 -0.045000006
0.045000009 0.020935988 -0.0436492
-0.044586159 0.023885338 -0.044305284
-0.04105306 0.023623943 -0.045000002
-0.038360886 0.023794983 -0.045000006
-0.036356121 0.023844356 -0.045000009
-0.034014147 0.023962719 -0.045000006
-0.031130921 0.023583438 -0.045000009
-0.028603604 0.023755495 -0.045000009
-0.026004666 0.023575734 -0.045000006
-0.023538424 0.023915175 -0.045000009
-0.021103607 0.024290251 -0.045000009
-0.018687407 0.023668278 -0.045000009
-0.016542912 0.023459386 -0.045000009
-0.013455627 0.023891918 -0.045000002
-0.011405477 0.023761259 -0.045000009
-0.0086237369 0.023753058 -0.045000006
-0.0064669414 0.024160955 -0.045000002
-0.0037684729 0.023803569 -0.045000009
-0.001261809 0.023571493 -0.045000006
0.0011236074 0.023997985 -0.045000009
0.0039947424 0.023513753 -0.045000002
0.006119627 0.02364542 -0.045000009
0.0087108873 0.023760324 -0.045000006
0.011026607 0.02363199 -0.045000009
0.013684744 0.023923475 -0.045000002
0.01662408 0.023699241 -0.045000009
0.018864606 0.02375187 -0.045000009
0.021369167 0.023718255 -0.045000009
0.023263587 0.023750901 -0.045000006
0.026128257 0.023860317 -0.045000006
0.028741967 0.023759658 -0.045000009
0.030983124 0.02374113 -0.045000009
0.034055501 0.023902567 -0.045000006
0.03597777 0.023845838 -0.045000009
0.038657941 0.02354647 -0.045000009
0.041500203 0.023630103 -0.045000009
0.044133648 0.023780983 -0.045000009
0.045000009 0.023733584 -0.043837003
-0.044439066 0.02625877 -0.044437479
-0.041239221 0.026170792 -0.045000009
-0.038810533 0.025967808 -0.045000006
-0.036012225 0.026818043 -0.045000002
-0.033866536 0.025924414 -0.045000006
-0.031409789 0.026279487 -0.045000009
-0.029113846 0.026163843 -0.045000009
-0.026494712 0.026441164 -0.045000006
-0.023889313 0.026330717 -0.045000009
-0.020964136 0.026180806 -0.045000009
-0.018717151 0.026248094 -0.045000009
-0.016408715 0.026214976 -0.045000013
-0.013766871 0.026200408 -0.045000006
-0.011651771 0.026231041 -0.045000009
-0.0094202282 0.026556667 -0.045000009
-0.0061671608 0.026364554 -0.045000009
-0.0037410178 0.026182013 -0.045000009
-0.0014111269 0.02597866 -0.045000002
0.0015277975 0.026337599 -0.045000009
0.0039058812 0.026431907 -0.045000009
0.0064273747 0.026020886 -0.045000009
0.0083620986 0.026154181 -0.045000006
0.011014476 0.026356041 -0.045000009
0.013676547 0.026390042 -0.045000009
0.016402464 0.026049631 -0.045000006
0.018815642 0.026335526 -0.045000006
0.021180419 0.026169006 -0.045000009
0.023559259 0.026457453 -0.045000009
0.026434558 0.026234582 -0.045000006
0.029137887 0.026324265 -0.045000006
0.031650744 0.026565749 -0.045000002
0.033728104 0.026369127 -0.045000009
0.036437757 0.026001854 -0.045000009
0.038699474 0.026420668 -0.045000009
0.041322239 0.026099209 -0.045000009
0.043821771 0.026383139 -0.045000006
0.045000002 0.025875125 -0.043647002
-0.044264488 0.028625559 -0.044320669
-0.041223519 0.028516794 -0.045000006
-0.038746964 0.028794017 -0.044999998
-0.036231384 0.028923063 -0.045000009
-0.033920079 0.028938618 -0.045000002
-0.03046974 0.028598422 -0.044999998
-0.028785449 0.028528219 -0.045000006
-0.026315099 0.028739432 -0.045000009
-0.023355398 0.028816871 -0.045000002
-0.021202486 0.02868418 -0.045000009
-0.018816177 0.028480945 -0.045000009
-0.016238341 0.028804261 -0.045000006
-0.013844067 0.028650412 -0.045000006
-0.011218361 0.029073328 -0.045000006
-0.0086586131 0.028640864 -0.045000006
-0.006232284 0.028569886 -0.045000009
-0.0038534845 0.028673988 -0.045000009
-0.0012736092 0.028571222 -0.045000002
0.0014911409 0.028570246 -0.045000006
0.0038222144 0.028755831 -0.045000009
0.0061958591 0.028827652 -0.045000002
0.0088333702 0.028583057 -0.045000002
0.011459021 0.028669912 -0.045000009
0.013597473 0.028895371 -0.045000006
0.016068224 0.029099328 -0.045000006
0.018807728 0.028511064 -0.044999998
0.021464344 0.028489601 -0.045000009
0.023680223 0.028671535 -0.045000009
0.026231846 0.028985545 -0.045000009
0.028783264 0.029013002 -0.045000006
0.031436101 0.028360561 -0.045000006
0.03376824 0.028922169 -0.045000006
0.036168367 0.028878506 -0.045000009
0.039105184 0.028533893 -0.045000006
0.041261084 0.02905418 -0.045000009
0.043735377 0.028816581 -0.045000009
0.045000009 0.028332416 -0.043816574
-0.044558924 0.03136516 -0.044520717
-0.040919796 0.031092197 -0.045000009
-0.039037872 0.031226551 -0.045000009
-0.03608115 0.030910218 -0.045000009
-0.033796784 0.031291548 -0.045000009
-0.031058183 0.031322569 -0.045000009
-0.028906714 0.031022931 -0.045000006
-0.026503667 0.03125817 -0.045000009
-0.023996999 0.031472921 -0.045000009
-0.021135869 0.031377316 -0.045000009
-0.018659353 0.031204887 -0.045000006
-0.016063832 0.031331684 -0.045000009
-0.013768904 0.031309906 -0.045000006
-0.011166122 0.031232588 -0.045000009
-0.0086498288 0.031573862 -0.045000009
-0.0062143449 0.0309148 -0.045000006
-0.0038088139 0.030929899 -0.045000006
-0.0011222457 0.031135334 -0.045000006
0.0014639802 0.031361137 -0.045000009
0.0035369329 0.031322069 -0.044999998
0.0063622734 0.031120401 -0.045000006
0.0085190618 0.031310901 -0.045000006
0.01145785 0.031206215 -0.045000009
0.01402534 0.031361848 -0.045000002
0.016467394 0.031365443 -0.045000006
0.018848909 0.031121019 -0.045000009
0.021672856 0.031336106 -0.045000009
0.023934038 0.031325884 -0.045000009
0.026542196 0.031778455 -0.045000002
0.029262193 0.031983871 -0.045000002
0.030877922 0.031049749 -0.044999998
0.03371634 0.031274755 -0.045000006
0.03631359 0.031221015 -0.045000006
0.03878263 0.031832535 -0.044999998
0.040939264 0.031356249 -0.045000009
0.043663114 0.031276535 -0.045000009
0.044999998 0.031188944 -0.043770283
-0.044301782 0.033817012 -0.044314086
-0.041411407 0.033964243 -0.045000009
-0.038956776 0.03376111 -0.045000009
-0.036208019 0.033661488 -0.045000002
-0.033928733 0.033584218 -0.045000006
-0.031085238 0.033862062 -0.044999998
-0.028842134 0.033977043 -0.045000002
-0.026297027 0.033898704 -0.045000009
-0.023739377 0.033529267 -0.045000002
-0.021536751 0.033694856 -0.045000009
-0.019247208 0.033595845 -0.045000002
-0.016158056 0.033433855 -0.045000006
-0.01382936 0.033987232 -0.045000006
-0.010881327 0.033788338 -0.045000006
-0.0087396493 0.033808801 -0.045000006
-0.0063992748 0.033844795 -0.045000009
-0.0040709903 0.033770964 -0.045000006
-0.0011333239 0.033392224 -0.045000009
0.001277181 0.033324141 -0.045000002
0.0038286506 0.03362716 -0.045000009
0.006013752 0.033720575 -0.045000009
0.0087193958 0.033914369 -0.045000006
0.01126337 0.033774268 -0.045000002
0.013590856 0.033566106 -0.045000009
0.016095715 0.033759478 -0.045000006
0.018496443 0.033890892 -0.045000009
0.021476036 0.033750135 -0.045000006
0.024248024 0.03352787 -0.045000006
0.025823327 0.034036048 -0.045000002
0.028691258 0.033790499 -0.045000009
0.031578355 0.033539943 -0.045000009
0.033731531 0.033548512 -0.045000006
0.036467891 0.033671055 -0.045000006
0.038786806 0.033944722 -0.045000009
0.041548643 0.034094218 -0.045000009
0.04384103 0.03380337 -0.045000009
0.045000009 0.033873752 -0.043633364
-0.044311196 0.036335833 -0.044577092
-0.04107533 0.036200143 -0.045000009
-0.038707454 0.036158178 -0.045000009
-0.036236722 0.03635934 -0.045000009
-0.034455013 0.036687862 -0.045000002
-0.03107704 0.035886642 -0.045000006
-0.028811146 0.036318585 -0.045000006
-0.026149495 0.036468454 -0.045000009
-0.023557993 0.036496915 -0.045000006
-0.02138209 0.03638988 -0.045000009
-0.018751318 0.036448348 -0.045000009
-0.016471535 0.035820119 -0.045000006
-0.013602125 0.036555286 -0.045000002
-0.01092112 0.036054302 -0.044999998
-0.0088041117 0.03591131 -0.045000009
-0.0065307016 0.036507744 -0.045000009
-0.0038031682 0.036344312 -0.045000009
-0.0012507569 0.036001269 -0.045000006
0.001620423 0.036518041 -0.045000006
0.003765794 0.036334395 -0.045000009
0.0063965986 0.036265872 -0.045000009
0.0089546619 0.035787106 -0.044999998
0.011417159 0.036275178 -0.045000006
0.013930603 0.036101177 -0.045000002
0.016453413 0.035931978 -0.045000002
0.018869145 0.036196828 -0.045000006
0.021166928 0.036330923 -0.045000009
0.02382087 0.036179405 -0.045000009
0.026057161 0.036333103 -0.045000006
0.028961791 0.036540557 -0.045000002
0.031038625 0.036289871 -0.045000009
0.033628199 0.036567029 -0.045000006
0.036439363 0.035815958 -0.045000006
0.038782224 0.036072094 -0.045000002
0.04132409 0.036284201 -0.045000002
0.043652531 0.036134802 -0.045000009
0.045000009 0.036545701 -0.044153564
-0.044517871 0.038945213 -0.044416331
-0.041383423 0.039043926 -0.045000009
-0.038509708 0.038596135 -0.045000009
-0.035842612 0.038515013 -0.045000009
-0.03361015 0.038898446 -0.045000006
-0.03126948 0.038863651 -0.045000009
-0.029050099 0.038856644 -0.045000006
-0.025987912 0.038459592 -0.045000009
-0.023253471 0.038531508 -0.045000009
-0.021492172 0.038684979 -0.045000006
-0.018462926 0.038945358 -0.045000009
-0.016057665 0.038725689 -0.045000009
-0.013552357 0.03880031 -0.045000002
-0.011371111 0.03907945 -0.045000006
-0.0088905636 0.038646135 -0.045000009
-0.0060079149 0.038779382 -0.045000009
-0.0034556619 0.038555108 -0.045000006
-0.0011555251 0.038754843 -0.045000009
0.0012363365 0.038549945 -0.045000009
0.0039279792 0.038703259 -0.045000009
0.0058360081 0.038467322 -0.045000002
0.0085314047 0.038643211 -0.044999998
0.01130534 0.038614579 -0.045000006
0.01356281 0.038602509 -0.045000002
0.015681768 0.038926788 -0.045000002
0.01903451 0.038947079 -0.045000006
0.021275118 0.038938474 -0.045000009
0.024352411 0.039194673 -0.045000002
0.02625899 0.038669597 -0.045000006
0.028627269 0.039163496 -0.045000006
0.031369645 0.038956691 -0.045000009
0.03349651 0.038647052 -0.045000006
0.035815142 0.038836308 -0.045000006
0.03904764 0.039321158 -0.045000002
0.041291311 0.03860382 -0.045000006
0.043624513 0.039043829 -0.045000009
0.045000006 0.039201364 -0.043711703
-0.044122554 0.041206978 -0.044565253
-0.041148089 0.041062489 -0.045000006
-0.03880417 0.041366722 -0.045000009
-0.035921194 0.04127967 -0.045000009
-0.033863354 0.04171402 -0.044999998
-0.031289827 0.04137899 -0.045000009
-0.028802967 0.041175663 -0.045000006
-0.026543478 0.041343674 -0.045000009
-0.023544729 0.041322093 -0.045000006
-0.021305595 0.041407686 -0.044999998
-0.018351903 0.041329619 -0.045000002
-0.016431466 0.041229691 -0.045000009
-0.013537525 0.041230466 -0.045000009
-0.010904202 0.04164755 -0.045000002
-0.0086595407 0.041353118 -0.045000009
-0.0058862693 0.041042402 -0.045000009
-0.0036394149 0.041511226 -0.045000009
-0.0010191241 0.041608859 -0.045000009
0.0012355493 0.040985316 -0.045000009
0.0037624675 0.041620985 -0.045000006
0.0062998701 0.041660544 -0.045000002
0.0086223325 0.041273154 -0.045000006
0.011433097 0.041062057 -0.045000006
0.013860847 0.041483734 -0.045000002
0.016399182 0.041243009 -0.045000002
0.01859232 0.041040029 -0.045000002
0.021039335 0.041223247 -0.045000009
0.024088357 0.041269392 -0.045000009
0.026447317 0.041083854 -0.045000002
0.028559711 0.041599337 -0.045000002
0.03107455 0.041307684 -0.045000009
0.033725414 0.041419182 -0.045000002
0.035751633 0.041281413 -0.045000006
0.038532209 0.041079629 -0.045000009
0.041074194 0.040772334 -0.045000002
0.04373198 0.041043188 -0.045000009
0.045000006 0.041083969 -0.043951921
-0.045000006 0.044754401 -0.044478096
-0.044430595 0.043744691 -0.044422917
-0.041583616 0.044004302 -0.045000002
-0.038545478 0.043517597 -0.044999998
-0.036285475 0.043732252 -0.045000006
-0.034086499 0.044012446 -0.045000009
-0.031175833 0.043624543 -0.045000002
-0.028745115 0.043821316 -0.045000006
-0.026289077 0.043400425 -0.045000002
-0.02385501 0.043713924 -0.045000006
-0.021094544 0.043366939 -0.045000006
-0.018713929 0.044160575 -0.045000006
-0.015959708 0.043636981 -0.045000009
-0.013370485 0.04374304 -0.045000009
-0.011465156 0.043984581 -0.045000002
-0.0085608615 0.04384964 -0.045000009
-0.006377839 0.043752767 -0.045000009
-0.0038098467 0.043634709 -0.045000009
-0.0011274674 0.043360747 -0.044999998
0.0011643384 0.043674085 -0.045000009
0.003933609 0.043813635 -0.045000006
0.0061246403 0.043928295 -0.045000006
0.0084877042 0.043444276 -0.045000009
0.011544385 0.043716546 -0.045000009
0.013920601 0.043719456 -0.045000002
0.016251082 0.043823402 -0.045000006
0.018732432 0.043833289 -0.045000009
0.021126527 0.043937776 -0.045000002
0.023767166 0.043753836 -0.045000006
0.026189137 0.043775138 -0.045000006
0.028496746 0.043230597 -0.045000006
0.031517986 0.043823969 -0.045000009
0.033686109 0.044111922 -0.045000002
0.036294427 0.043916862 -0.045000002
0.038763259 0.043917216 -0.044999998
0.04113638 0.043970004 -0.045000009
0.043621566 0.043561399 -0.045000002
0.044999998 0.043625865 -0.043479588
-0.043695934 0.045000006 -0.043869451
-0.041190527 0.045000009 -0.043702252
-0.038816962 0.045000009 -0.043730881
-0.036246307 0.045000009 -0.043572739
-0.033764385 0.045000002 -0.043893743
-0.031135183 0.045000009 -0.043849804
-0.028515516 0.045000006 -0.043825392
-0.026615953 0.045000006 -0.04391478
-0.024083752 0.045000006 -0.043801408
-0.021327469 0.045000006 -0.043734357
-0.018962085 0.045000009 -0.043926839
-0.016502725 0.045000009 -0.043638475
-0.013663228 0.045000006 -0.043826252
-0.011549958 0.045000006 -0.043130998
-0.008579528 0.045000006 -0.04429163
-0.0064135175 0.045000002 -0.043947801
-0.0039818394 0.044999998 -0.043134253
-0.0011560518 0.045000006 -0.043319378
0.00080421031 0.045000002 -0.043514591
0.0036628135 0.045000009 -0.04364758
0.0061754165 0.045000009 -0.043720014
0.0087668383 0.045000006 -0.0440511
0.012028387 0.044999998 -0.043373071
0.013710981 0.045000009 -0.043869019
0.0164975 0.045000009 -0.043677215
0.018667879 0.045000002 -0.043576956
0.021077827 0.045000009 -0.043688323
0.02408761 0.045000006 -0.043485116
0.026134165 0.045000006 -0.043797608
0.02887751 0.045000009 -0.044100139
0.031013642 0.045000009 -0.043432482
0.03384807 0.045000006 -0.043957766
0.036040749 0.045000006 -0.044097986
0.039308399 0.045000006 -0.043707043
0.040964771 0.045000006 -0.043481432
0.043867446 0.045000009 -0.04378885
-0.0432874 -0.045000006 -0.040094305
-0.04212293 -0.045000006 -0.041828655
0.029504186 -0.045000006 -0.040738463
0.030956548 -0.045000006 -0.040045585
0.039754242 -0.045000006 -0.040665526
0.044438101 -0.045000006 -0.040652119
-0.045000006 -0.044129323 -0.041759979
-0.044393338 -0.044402294 -0.041379001
-0.040878784 -0.045000006 -0.0412644
-0.038979314 -0.045000009 -0.041157492
-0.036486652 -0.045000006 -0.041336656
-0.033619329 -0.045000009 -0.041281499
-0.031095807 -0.045000002 -0.041362524
-0.028807163 -0.045000009 -0.041145246
-0.02635028 -0.045000009 -0.041077863
-0.023502825 -0.045000009 -0.041648116
-0.021137921 -0.045000009 -0.041169979
-0.018538596 -0.045000009 -0.041072495
-0.016232241 -0.045000009 -0.041066412
-0.013791538 -0.045000009 -0.041047819
-0.011583984 -0.045000002 -0.041005313
-0.0087052574 -0.045000006 -0.041193675
-0.0066145756 -0.045000009 -0.041436993
-0.0038804114 -0.045000006 -0.04098187
-0.0012055456 -0.045000009 -0.041287497
0.0009473809 -0.045000009 -0.041332822
0.0039733173 -0.045000009 -0.041337196
0.0062830094 -0.045000006 -0.041144911
0.0088737784 -0.045000006 -0.041247532
0.01114529 -0.045000009 -0.041341361
0.01356205 -0.045000002 -0.041564956
0.016231474 -0.045000009 -0.041481007
0.018609114 -0.045000009 -0.041223411
0.021352362 -0.045000006 -0.041044544
0.023954773 -0.045000006 -0.040918924
0.026215147 -0.045000006 -0.040987711
0.028819762 -0.045000009 -0.041410789
0.031145087 -0.045000009 -0.041296534
0.033973798 -0.044999998 -0.041370217
0.036120359 -0.045000006 -0.041324131
0.038796019 -0.045000002 -0.041740693
0.041340347 -0.045000009 -0.041276619
0.043467846 -0.045000002 -0.041058928
0.045000002 -0.043480109 -0.04168319
-0.045000006 -0.040942099 -0.041438892
-0.045000009 -0.041317396 -0.041359272
0.044999998 -0.040969159 -0.041267853
-0.045000006 -0.038877551 -0.040753417
-0.045000006 -0.039274495 -0.041679651
0.045000006 -0.038494613 -0.04127736
-0.045000002 -0.036116555 -0.04117636
0.045000009 -0.036343351 -0.041287947
-0.044999998 -0.033882637 -0.04125005
0.045000002 -0.034214407 -0.041683894
-0.045000006 -0.031720117 -0.041678302
-0.045000006 -0.03170963 -0.041265961
0.045000009 -0.031245867 -0.041298483
-0.045000009 -0.028845919 -0.041263968
0.045000009 -0.028811133 -0.041335668
-0.045000002 -0.025797307 -0.041576833
0.045000009 -0.026345242 -0.041064586
-0.045000002 -0.023543937 -0.041702345
0.045000009 -0.023786373 -0.041367866
-0.045000006 -0.021415208 -0.041175328
0.045000002 -0.021303538 -0.041164514
-0.045000009 -0.01837907 -0.041709758
0.045000009 -0.018921228 -0.041384779
-0.045000009 -0.015934465 -0.041259557
0.045000002 -0.016633207 -0.041225471
-0.045000009 -0.013848533 -0.04133812
0.045000009 -0.013732189 -0.041292585
-0.045000009 -0.011045297 -0.040724535
